# .PCD v0.7 - Point Cloud Data file format
VERSION 0.7
FIELDS x y z
SIZE 4 4 4
TYPE F F F
COUNT 1 1 1
WIDTH 397
HEIGHT 1
VIEWPOINT 0 0 0 1 0 0 0
POINTS 397
DATA ascii
0.0034826379 0.11141376 0.043170579
-0.0028527409 0.11484069 0.040819019
-0.0086600939 0.11350314 0.040462341
0.025719116 0.11716294 0.031610381
0.024494957 0.12114383 0.026884843
0.035846569 0.11309318 0.025798574
0.030456562 0.12046772 0.028925242
0.025767079 0.12166066 0.017265247
0.035890557 0.11307134 0.019860001
0.014836739 0.12116008 0.026790317
0.0082719345 0.12653488 0.033589613
0.018961711 0.11801606 0.033582408
0.0084525533 0.11764793 0.035166554
0.017741019 0.12680504 0.027236717
0.0046319701 0.13074484 0.027836349
0.022077125 0.12379122 0.02676714
-0.001218911 0.12557797 0.03276052
-0.0094875013 0.12435887 0.033594996
-0.0018583103 0.11825132 0.042591959
-0.014811607 0.12193424 0.039540555
-0.00076523097 0.12943232 0.027924648
-0.014217295 0.12444248 0.026139865
0.012688262 0.12709573 0.022352457
0.0088013429 0.13056524 0.019813471
-0.00072291831 0.13231635 0.017992927
-0.012754172 0.12739779 0.017081445
-0.017665252 0.10983174 0.040931307
-0.076455578 0.13329792 0.052397307
-0.067814939 0.14445603 0.043479066
-0.075784966 0.14506613 0.042939108
-0.068028547 0.13588975 0.042208079
-0.071345516 0.13893661 0.048946019
-0.076882094 0.13314293 0.052455667
-0.078977726 0.14330994 0.044932757
-0.081621706 0.13660136 0.045035247
-0.091549411 0.13563894 0.043447319
-0.065833189 0.12290282 0.048681393
-0.075551018 0.1280573 0.053038392
-0.065567158 0.11772545 0.048493095
-0.073804051 0.11930902 0.053715475
-0.063843608 0.12828052 0.043202445
-0.06714981 0.13116021 0.049666677
-0.060403679 0.11771718 0.045989603
-0.073280819 0.11392911 0.049413681
-0.077983879 0.13045742 0.054282635
-0.076766349 0.12158863 0.050303143
-0.083255157 0.12961841 0.046817917
-0.092577107 0.12982544 0.041660629
-0.083245419 0.11668456 0.052327313
-0.089892738 0.11432655 0.043401182
-0.056182794 0.15184405 0.030341282
-0.050423827 0.15346742 0.026258087
-0.035365753 0.17242424 0.0004231701
-0.040207107 0.17257369 0.00086399808
-0.035205271 0.16911411 0.00011128094
-0.033155091 0.15638897 0.0039177169
-0.049877744 0.15291259 0.011554613
-0.03968028 0.16431937 0.003568186
-0.049446478 0.15978204 0.0060535902
-0.042319182 0.15822943 0.00531705
-0.05167928 0.15558942 0.0077488883
-0.063685447 0.15244265 0.03405863
-0.072384275 0.15348862 0.034663286
-0.061045453 0.15376657 0.026733031
-0.075241677 0.15536462 0.029854426
-0.078370556 0.15159497 0.034545697
-0.079231828 0.15376613 0.027835889
-0.086689323 0.1504942 0.017478133
-0.060605478 0.1568597 0.012380701
-0.058054581 0.15777849 0.0045909793
-0.089555196 0.15537058 0.021804282
-0.053695221 0.14676155 0.032520391
-0.054775257 0.13877186 0.030387705
-0.053618524 0.14514428 0.024393374
-0.047736499 0.13271336 0.025832102
-0.051375482 0.13655093 0.024669845
-0.017461061 0.12252482 0.032155249
-0.02099208 0.1157486 0.039056446
-0.031853527 0.11490154 0.034134857
-0.023066588 0.12468272 0.02296616
-0.032796416 0.12187496 0.022610497
-0.026446672 0.11917461 0.028235923
-0.032198705 0.12098419 0.030622277
-0.054213885 0.12522762 0.035562139
-0.039779872 0.11604702 0.031557914
-0.049543001 0.11776989 0.034538418
-0.039935306 0.12519544 0.02860852
-0.046306461 0.12616673 0.031176304
-0.040874898 0.12342593 0.029724589
-0.047063105 0.1205394 0.025947828
-0.036938686 0.15149923 0.00037670607
-0.05371432 0.14623214 0.01426886
-0.046086762 0.13490604 0.018939616
-0.050735351 0.13756517 0.018895429
-0.043845192 0.14933968 0.0039182384
-0.047977086 0.14517061 0.0069297859
-0.021876806 0.1299199 0.0187362
-0.03190507 0.12506534 0.016949492
-0.039163183 0.12982559 0.019188371
-0.06012889 0.14602764 0.036406651
-0.068884239 0.1521578 0.042467769
-0.061433174 0.13843669 0.036669895
-0.081130192 0.14847058 0.033379145
-0.090846956 0.14348182 0.032945577
-0.089988947 0.13809645 0.04045039
-0.086215355 0.1474131 0.030930869
-0.08612404 0.1458893 0.023442812
-0.090843327 0.13625626 0.023480879
-0.057628449 0.13092458 0.038921524
-0.057820424 0.11287878 0.038232669
-0.092855982 0.12739041 0.037135631
-0.092933722 0.11475335 0.044412829
-0.091698073 0.1227658 0.021966666
-0.092581578 0.12184054 0.022875294
-0.098238014 0.14277585 0.018834567
-0.092519075 0.13708073 0.018144589
-0.093676656 0.11856658 0.020927787
0.027725296 0.10480308 0.041633654
0.0377483 0.095604725 0.042063393
0.028317215 0.099825509 0.041532915
0.035471853 0.086660348 0.044119786
0.027161784 0.087493218 0.044526469
0.033762615 0.075980768 0.041761581
0.028256595 0.077024028 0.045614056
0.015019785 0.095264599 0.053328793
0.0098992651 0.096143879 0.053483263
0.015803484 0.10635896 0.045816153
0.0095695592 0.1050501 0.043186992
0.018892048 0.098735556 0.048964966
0.0092108902 0.098124623 0.049559619
-0.0036159651 0.095539488 0.053279001
-0.012967777 0.093408406 0.055217449
-0.001156864 0.10465458 0.044848051
-0.0091624539 0.11045771 0.045033909
0.00090247567 0.1016185 0.046070814
-0.014467882 0.10197197 0.045916103
0.019686976 0.086598888 0.049709775
0.0085108615 0.087471731 0.056137159
0.017352594 0.07636191 0.05358256
0.0079387408 0.075082935 0.055016134
0.018241478 0.086510733 0.050677843
0.022501709 0.076129586 0.054445904
-0.0076239742 0.08882346 0.058629952
-0.010940175 0.085905969 0.058016088
0.0015631637 0.077730261 0.055614594
-0.012745127 0.081980653 0.055833735
0.03426937 0.068128921 0.041098349
0.02843708 0.067025527 0.044534799
0.024535518 0.059416838 0.041742794
0.025899278 0.042765651 0.037982892
0.020336349 0.066814922 0.048500631
0.0063784951 0.065107718 0.054589082
0.015739301 0.06025606 0.053126004
0.0089946762 0.054721218 0.051147383
0.02077733 0.066507168 0.053124882
0.018679447 0.057847325 0.049396828
0.014450893 0.050293319 0.048438687
-0.0021487279 0.064281993 0.055020347
-0.012022332 0.06320326 0.057712439
-0.0012593071 0.055817198 0.05723219
-0.012890387 0.057069328 0.053198382
-0.011395367 0.05505465 0.051064711
0.0060983952 0.051621202 0.052432992
0.018180743 0.04662694 0.039299969
0.0056105219 0.045385636 0.048882306
0.015373688 0.039230142 0.042533554
0.0087138256 0.037148386 0.044907853
-0.00076729851 0.048403878 0.050483637
-0.015384009 0.042772457 0.04983924
-0.013937467 0.04041113 0.053352747
-0.0026239392 0.0472176 0.046055228
-0.012510657 0.04742498 0.045606643
-0.005226268 0.038611203 0.048898187
-0.011876546 0.03747208 0.051628146
0.047263265 0.0935039 0.023918319
0.033650719 0.10202501 0.028844438
0.029383531 0.11015276 0.034254421
0.035386071 0.096491612 0.036282446
0.031717408 0.096375823 0.039959215
0.041386858 0.10785526 0.02957652
0.032927465 0.10950445 0.026485609
0.040049497 0.096492797 0.029073728
0.041140731 0.086623251 0.026845593
0.051018614 0.070318125 0.022327406
0.04597627 0.078359477 0.023440139
0.039565574 0.08588963 0.035796084
0.037026938 0.075740144 0.035982691
0.044343852 0.088507578 0.0278171
0.046267234 0.078182973 0.026163779
0.046023931 0.093560129 0.011679311
0.044436656 0.097139448 0.0064238375
0.041862998 0.10479622 0.013886066
0.042605203 0.094033048 0.019676983
0.046531513 0.085984498 0.017858045
0.054422814 0.068505965 0.016496621
0.04495661 0.077011131 0.018730521
0.046451066 0.085481308 0.010268422
0.0199097 0.10871468 0.038455859
0.0097252624 0.10926846 0.039484266
0.049810618 0.058009662 0.029060123
0.059338812 0.067509219 0.026931252
0.049338859 0.069487981 0.028612601
0.052396718 0.058009468 0.025550988
0.051053997 0.052926209 0.032679342
0.036757547 0.060364116 0.035165589
0.03261115 0.062098451 0.042300016
0.038604956 0.056490965 0.033941779
0.032976523 0.054360896 0.041289691
0.039023973 0.069282047 0.025766002
0.040141545 0.062985376 0.029707227
0.045634985 0.049228646 0.028989526
0.053780392 0.049530704 0.020965138
0.047541019 0.046155889 0.023506422
0.038570322 0.046693832 0.028823925
0.027142823 0.046637718 0.036739666
0.029658807 0.035015393 0.0355049
0.036790449 0.042890463 0.026011653
0.030683592 0.043214232 0.029383436
0.038772922 0.041890454 0.02357259
0.031968515 0.037967 0.026923439
0.059493478 0.067973599 0.016743595
0.043401279 0.074055836 0.022958145
0.062771782 0.056369126 0.019274998
0.055769734 0.050276443 0.018807391
0.049273692 0.046305649 0.018582808
0.025201648 0.047230531 0.036420736
0.023990771 0.041650407 0.03750848
-0.021830585 0.091584764 0.054302275
-0.021422544 0.10690533 0.041171953
-0.031730909 0.10252649 0.038860545
-0.021940289 0.10085553 0.042218059
-0.032269862 0.095140681 0.045669734
-0.044325899 0.10850867 0.04174275
-0.050493632 0.10503037 0.040799413
-0.043219324 0.096677378 0.041365847
-0.052748412 0.097462721 0.044442877
-0.01947289 0.091854386 0.054993011
-0.028893355 0.083864197 0.048298836
-0.020929858 0.077179968 0.056874085
-0.028879844 0.09191674 0.049368616
-0.033329196 0.087200299 0.046746917
-0.025312828 0.074661262 0.047444355
-0.033770218 0.078694813 0.042996109
-0.041434474 0.084110767 0.044154949
-0.05149943 0.087286681 0.044112194
-0.03854312 0.073251247 0.041021418
-0.056828763 0.077495188 0.045896284
-0.060050111 0.10482492 0.041813038
-0.073276684 0.11049796 0.040960465
-0.061925504 0.094587706 0.041445505
-0.069877014 0.096002646 0.041038752
-0.079282507 0.10995084 0.042146936
-0.062263109 0.08656238 0.042938717
-0.070188545 0.087534383 0.043062072
-0.062544368 0.076829664 0.040704858
-0.071998492 0.079404168 0.040469021
-0.021083949 0.068727046 0.048959322
-0.017746618 0.059938647 0.050876152
-0.026467912 0.06436348 0.043827266
-0.034101956 0.069206461 0.038976274
-0.01995397 0.056801151 0.042255513
-0.038487468 0.058075942 0.040137094
-0.043127108 0.062277909 0.037226997
-0.045716453 0.067860067 0.041063882
-0.037898853 0.056542918 0.040700942
-0.022037927 0.043402888 0.053774342
-0.03177977 0.045283444 0.052451894
-0.023124436 0.039922595 0.054479267
-0.028417829 0.043384496 0.04977696
-0.0238687 0.051316414 0.047497708
-0.031479836 0.043977633 0.046505481
-0.036649182 0.03985529 0.048586875
-0.040712226 0.045454219 0.043098338
-0.050884336 0.045707934 0.042688992
-0.04367651 0.039512172 0.042481259
-0.052400086 0.041450586 0.044538986
-0.06203068 0.039519526 0.042494994
-0.06166489 0.039120756 0.043102823
-0.026149455 0.1132865 0.036962222
-0.031422704 0.11126725 0.036564648
-0.041864593 0.10954625 0.034294762
-0.051841084 0.11002155 0.036683384
-0.063965321 0.10771331 0.039078452
-0.074145108 0.1053101 0.041135069
-0.076906748 0.096746959 0.039159343
-0.07906349 0.10526529 0.031361207
-0.081318639 0.096108191 0.030991107
-0.087888584 0.11043337 0.027758984
-0.087493241 0.10457457 0.023571394
-0.086719334 0.098982714 0.025124513
-0.087897658 0.097476378 0.023590393
-0.077779613 0.08426474 0.041286863
-0.06320104 0.072794832 0.041137937
-0.070113726 0.074763313 0.033914216
-0.075302869 0.073063053 0.027883936
-0.083253913 0.08428093 0.033840351
-0.078226976 0.078196235 0.029931493
-0.08461304 0.091527291 0.027847761
-0.093857214 0.086307235 0.023718171
-0.083841316 0.076421209 0.026025992
-0.089265555 0.10856994 0.016786996
-0.091470584 0.10382432 0.01713232
-0.087871209 0.10249478 0.020026041
-0.087670453 0.07815218 0.016498985
-0.0879784 0.088555932 0.016650679
-0.081591167 0.076444522 0.015699673
-0.08195547 0.078535661 0.005543598
-0.025422391 0.065913424 0.037668433
-0.030860098 0.063681029 0.040107422
-0.026587194 0.059658304 0.037982814
-0.035018571 0.056181513 0.038312454
-0.044394877 0.068403423 0.034095205
-0.054336816 0.065673858 0.038665865
-0.043556571 0.05468728 0.04088641
-0.046055451 0.054686245 0.036316887
-0.054503232 0.060878403 0.028801987
-0.052096993 0.059772115 0.031586882
-0.033677805 0.05131764 0.036514435
-0.040361587 0.049990866 0.039245341
-0.050289456 0.050270684 0.037805542
-0.053638767 0.053091645 0.028872713
-0.053293079 0.053598057 0.014381633
-0.057764158 0.056100048 0.0085234614
-0.057706542 0.048498001 0.011112014
-0.051220778 0.05124709 0.0062517859
-0.059857506 0.068198718 0.031187149
-0.072117783 0.068730503 0.034115952
-0.063425779 0.060769141 0.030915899
-0.07008528 0.066133812 0.02616011
-0.063797168 0.060024623 0.020112472
-0.068741634 0.065283351 0.022011988
-0.075849764 0.073490568 0.02060209
-0.062249225 0.047418449 0.041192077
-0.066145487 0.039239857 0.037572809
-0.069558442 0.036405586 0.035097908
-0.075148568 0.068092704 0.022485644
-0.060386527 0.05793272 0.021478172
-0.065802269 0.065020181 0.019676404
-0.060614794 0.053677499 0.0026512132
-0.077515304 0.069982104 0.016335603
-0.058058046 0.04809219 0.011826516
-0.069695316 0.040667325 0.01097556
-0.063200042 0.037635244 0.013935312
-0.067442648 0.036853176 0.012383542
-0.064179331 0.044531506 0.0049219886
-0.070888907 0.04460847 0.0081002787
-0.070393316 0.040063139 0.008242053
-0.017002158 0.18477698 -0.020382741
-0.014577844 0.17569061 -0.019283747
-0.015972862 0.16132398 -0.012640951
-0.018214868 0.15987666 -0.0074677877
-0.010807635 0.16552816 -0.014634366
-0.011716325 0.15737918 -0.012187026
-0.011571702 0.18429957 -0.026573427
-0.011534475 0.17590891 -0.024146335
-0.0084981741 0.16841392 -0.020647962
-0.022560745 0.18327126 -0.0075401128
-0.028008305 0.1819344 -0.012988614
-0.027072111 0.17967312 -0.0098361801
-0.032859258 0.17644201 -0.0044034733
-0.024709219 0.18499149 -0.0119248
-0.018091323 0.17588185 -0.011842793
-0.02671062 0.17177409 -0.010771863
-0.041114125 0.17194717 -0.0017806622
-0.022860298 0.16286826 -0.0083280746
-0.031055206 0.16743945 -0.0043911934
-0.025259012 0.15842538 -0.003251723
-0.034427296 0.15976378 -0.0050272699
-0.021060355 0.16631798 -0.013738416
-0.029499453 0.17153026 -0.0089440262
-0.043333594 0.16890444 0.0012725346
-0.048737086 0.16809124 0.0020287591
-0.038282257 0.16233765 -0.0021497433
-0.065836817 0.15502363 -0.0086345552
-0.070643365 0.15767927 -0.0076758247
-0.067837194 0.15890768 -0.01543056
-0.07008037 0.16347663 -0.012028405
-0.065660968 0.16048577 -0.0113661
-0.072663933 0.16012749 -0.012552928
-0.078558616 0.1655702 -0.020969035
-0.078425601 0.16095942 -0.015628863
-0.072694004 0.17021108 -0.038757466
-0.079549946 0.17455122 -0.039717834
-0.06666512 0.16555563 -0.02677203
-0.069710627 0.16752738 -0.021812409
-0.069449231 0.16839401 -0.030825652
-0.071281537 0.1719884 -0.034303695
-0.077098161 0.16498458 -0.026515547
-0.076726034 0.15622665 -0.021922231
-0.076419748 0.16778199 -0.037036959
-0.031938892 0.14915597 -0.0047970954
-0.063294776 0.17132226 -0.048824646
-0.072672792 0.17799622 -0.046030879
-0.067839809 0.18300653 -0.056833889
-0.066155694 0.17306992 -0.05331552
-0.070027947 0.17488523 -0.050375488
-0.075897098 0.17587745 -0.046361826
