# .PCD v0.7 - Point Cloud Data file format
VERSION 0.7
FIELDS x y z
SIZE 4 4 4
TYPE F F F
COUNT 1 1 1
WIDTH 1364
HEIGHT 1
VIEWPOINT 0 0 0 1 0 0 0
POINTS 1364
DATA ascii
-0.27530804 -0.056249127 0.38262072
-0.26804927 -0.055986755 0.38368183
-0.2580753 -0.056686848 0.38462502
-0.24765015 -0.056395415 0.38428
-0.23743248 -0.055548191 0.38493979
-0.22830822 -0.055526305 0.38451165
-0.2177542 -0.055563975 0.38522002
-0.20896935 -0.055641167 0.38717046
-0.20148256 -0.15316659 0.39232206
-0.2009978 -0.14368162 0.39272371
-0.20353584 -0.13517775 0.38900003
-0.20148472 -0.13391683 0.39270735
-0.20353584 -0.12554142 0.38900003
-0.2017463 -0.12428048 0.39251354
-0.20157929 -0.11366488 0.39267743
-0.20353584 -0.10351554 0.38900003
-0.20162182 -0.10415508 0.39234668
-0.2033771 -0.090576313 0.38940004
-0.20182939 -0.094398074 0.39247829
-0.20355773 -0.08610291 0.38935298
-0.20225996 -0.084386311 0.39297962
-0.20180561 -0.073837228 0.39245591
-0.20353584 -0.062217016 0.38900003
-0.20109446 -0.064372681 0.39209414
-0.20413809 -0.054357976 0.38924003
-0.20208555 -0.056295384 0.39229035
-0.075344883 0.037291437 0.39536113
-0.067707956 0.03691905 0.39595607
-0.058435731 0.037901092 0.39691046
-0.050515611 0.038582351 0.39686957
-0.073808812 0.042438157 0.39462501
-0.067885615 0.045901243 0.39538845
-0.058740646 0.045837581 0.39674491
-0.051540449 0.041638941 0.39700001
-0.031090941 0.048195273 0.39700001
-0.073772661 0.056273501 0.39478573
-0.067736134 0.056122545 0.39495799
-0.057864219 0.056028947 0.39591229
-0.051581774 0.057492595 0.39700001
-0.074050225 0.066008948 0.39419234
-0.067668252 0.065882668 0.39446297
-0.057464007 0.066114053 0.39611322
-0.051072143 0.065496705 0.39700001
-0.074397504 0.075119302 0.39527589
-0.067784511 0.075621299 0.39533901
-0.057700541 0.075846918 0.39590085
-0.048576459 0.076882593 0.39659303
-0.042174265 0.079806164 0.39700001
-0.073738836 0.086407036 0.39400002
-0.067671232 0.08579196 0.39441526
-0.057930384 0.085871942 0.39520356
-0.048225768 0.086133584 0.39558977
-0.038580231 0.086905472 0.39678162
-0.031496808 0.086924464 0.39700001
-0.073882915 0.09653078 0.39384213
-0.067655332 0.095942184 0.39403307
-0.057963904 0.096055962 0.39450911
-0.048451867 0.096095547 0.39566088
-0.039456282 0.095106445 0.39691359
-0.03257392 0.091045588 0.39700001
-0.073638126 0.10579811 0.39295653
-0.067578837 0.10604863 0.39359507
-0.058001418 0.10599745 0.3940472
-0.048166621 0.10578334 0.39531898
-0.040462848 0.10537586 0.39673439
-0.073705144 0.11431016 0.39371431
-0.067712627 0.11607622 0.39363393
-0.057996679 0.11609074 0.39339498
-0.048393913 0.11596544 0.39587504
-0.041769814 0.11616401 0.39700001
-0.074211344 0.12868674 0.39183336
-0.068275809 0.12589896 0.39216381
-0.058129627 0.12571158 0.39278379
-0.048564371 0.12588562 0.39502728
-0.038817734 0.1254604 0.39684695
-0.031845439 0.12507609 0.39700001
-0.073411211 0.13631546 0.39250001
-0.067875773 0.13607344 0.39237097
-0.058260214 0.13605541 0.39368597
-0.048297409 0.1359086 0.39510345
-0.041434899 0.13649781 0.39697564
-0.073780693 0.14585069 0.39200002
-0.068039745 0.14575697 0.39178219
-0.058081526 0.14589711 0.39294019
-0.048188608 0.14586969 0.39533931
-0.039610662 0.14594027 0.39679763
-0.048304435 0.1513344 0.39545456
-0.039527178 0.15148087 0.39672729
-0.20103095 -0.15192731 0.40224141
-0.20056525 -0.14305058 0.40073687
-0.20029737 -0.13456476 0.40067649
-0.20096308 -0.12431213 0.40242624
-0.2014762 -0.11388774 0.40256524
-0.20133069 -0.1044319 0.40241668
-0.20136002 -0.093534254 0.40240353
-0.20182343 -0.084238797 0.40269843
-0.20112577 -0.074651822 0.40260002
-0.20111403 -0.061359383 0.40216002
-0.20163068 -0.057745401 0.40041667
-0.054339677 0.030823883 0.40566668
-0.051511563 0.030849209 0.40600002
-0.035091363 0.030317327 0.39900002
-0.029722385 0.030279335 0.39850003
-0.013956972 0.030418636 0.40033334
-0.0035654732 0.030393308 0.40000001
-0.00026253477 0.030393308 0.40000001
0.016455309 0.030773228 0.40500003
0.017844379 0.030697243 0.40400001
-0.073783219 0.033433869 0.39800003
-0.070776746 0.032971881 0.39822224
-0.056571785 0.033721182 0.40011364
-0.047186241 0.035613701 0.39975002
-0.037964173 0.036156211 0.39964488
-0.028203886 0.036119867 0.39880174
-0.017486658 0.036967751 0.40029293
-0.0078708064 0.036238663 0.3992404
0.0015391672 0.036404088 0.39966667
0.012658911 0.037096996 0.40357748
0.020726738 0.036860384 0.40300003
-0.054118332 0.046785247 0.39800003
-0.047542501 0.045898624 0.39812267
-0.037877675 0.045800079 0.39860001
-0.027613655 0.045493543 0.3986735
-0.017695554 0.045901287 0.39946365
-0.0078093871 0.045951597 0.39988002
0.0021012651 0.046037793 0.40063637
0.012105515 0.045753911 0.40193579
0.020726198 0.04587701 0.40282026
-0.053626481 0.051211853 0.39800003
-0.04703873 0.055283822 0.3981635
-0.037885703 0.055691507 0.39869094
-0.028028175 0.055735737 0.39900002
-0.017720537 0.05587206 0.39999175
-0.0078123515 0.055877186 0.40002728
0.0021007056 0.055933043 0.40041324
0.012013702 0.056036178 0.40148625
0.020812986 0.055746965 0.40220484
-0.046189576 0.066034794 0.3980118
-0.037826583 0.065932691 0.39806366
-0.028084055 0.0660889 0.39924169
-0.017720923 0.065781936 0.40000001
-0.0077890032 0.066112824 0.39995328
0.0021016584 0.065880142 0.40060911
0.01207809 0.065896377 0.40100992
0.021032611 0.065830007 0.40241238
-0.045317031 0.073313184 0.39800003
-0.037743703 0.075695559 0.39800003
-0.027956808 0.075841703 0.39856759
-0.01770182 0.075616822 0.39961985
-0.0078328801 0.075988546 0.39987379
0.0021011455 0.075768135 0.4003967
0.012035905 0.075881802 0.40100911
0.021268422 0.076087244 0.40160197
-0.037123233 0.082368866 0.39800003
-0.027253011 0.085369334 0.39811885
-0.017678142 0.085873619 0.39907441
-0.0078019225 0.085953742 0.39946365
0.0020999108 0.086127251 0.40027273
0.011959344 0.086134233 0.40071297
0.021795535 0.086321712 0.40273079
0.027852282 0.090744659 0.40400001
-0.035349358 0.097501837 0.39800003
-0.027958168 0.095937423 0.39854786
-0.017745327 0.095805757 0.39889288
-0.0077932701 0.095747396 0.39903003
0.0020976816 0.095926136 0.39977273
0.012089316 0.095940061 0.40025491
0.02188733 0.095750898 0.40150002
0.02778334 0.093841858 0.403
-0.035511233 0.10629857 0.39800003
-0.027982609 0.10568191 0.39829567
-0.017589588 0.10562222 0.3986975
-0.0077976282 0.10570809 0.3993091
0.0020964516 0.10581823 0.39973554
0.012006935 0.10589825 0.40003636
0.021772662 0.10624454 0.40097415
0.028118486 0.10757285 0.40100002
-0.036768444 0.11556634 0.39803532
-0.027961081 0.11568837 0.39800003
-0.017765936 0.11584778 0.39895764
-0.0078121084 0.11579786 0.40000001
0.0021657529 0.11610744 0.3997227
0.011998423 0.11619601 0.39975455
0.021186199 0.11589685 0.40078497
-0.035554558 0.12683363 0.39800003
-0.027775947 0.12593681 0.39827105
-0.017583549 0.1257863 0.39919472
-0.007805252 0.12561005 0.39970002
0.0020179534 0.12597831 0.3996518
0.011993779 0.12604269 0.39956
0.02128092 0.126167 0.40140197
-0.036708403 0.13582698 0.39800003
-0.027851138 0.13571849 0.39820004
-0.017673586 0.1357301 0.39895043
-0.0077929832 0.13576263 0.39904547
0.0020972549 0.13610105 0.40004134
0.011949318 0.13612862 0.40037963
0.021762431 0.13590001 0.40097171
-0.034562383 0.1455934 0.39800003
-0.027974153 0.14581263 0.39820665
-0.017684292 0.14617661 0.39920664
-0.0077920821 0.1460879 0.39896366
0.0019749554 0.14610189 0.39956036
0.012091758 0.1460118 0.40032354
0.021856412 0.14592175 0.40177879
0.028575653 0.14788345 0.40300003
-0.035003416 0.15183902 0.39800003
-0.028002892 0.15208168 0.3986364
-0.017676622 0.15222052 0.39900002
-0.0077866795 0.1520488 0.39855003
0.0026219154 0.15212789 0.39944446
0.012005522 0.15213017 0.40000001
0.022239285 0.15269457 0.40109804
0.027783342 0.15136962 0.40300003
-0.20294239 -0.15216744 0.41400003
-0.20211305 -0.15242952 0.41033334
-0.201023 -0.14300081 0.4147442
-0.20044066 -0.13457829 0.41205886
-0.20090684 -0.12384456 0.41169813
-0.20158346 -0.11424009 0.41308001
-0.20293085 -0.10334333 0.41800001
-0.20203169 -0.10424501 0.41211367
-0.20169038 -0.094565459 0.4128485
-0.20122275 -0.084006302 0.41183335
-0.19995165 -0.076043539 0.41200003
-0.20367624 -0.062120687 0.41600001
-0.20152855 -0.062034156 0.4094286
-0.054171737 0.030038606 0.40800002
-0.20139796 -0.1500594 0.42133334
-0.19977771 -0.14594141 0.42030773
-0.20327058 -0.12269416 0.42700002
-0.20236348 -0.12115934 0.42283335
-0.20327058 -0.11211649 0.42700002
-0.20249073 -0.1147388 0.42275003
-0.20327978 -0.10410737 0.42663637
-0.2027359 -0.10422204 0.42170373
-0.20350572 -0.096552894 0.42481819
-0.20258065 -0.093615793 0.42138463
-0.20171988 -0.084863544 0.42296878
-0.20124082 -0.076620534 0.42214286
-0.20558441 -0.06233453 0.42171431
-0.20596905 -0.12969151 0.43700001
-0.20417587 -0.12365042 0.43260002
-0.20382704 -0.11406927 0.43290001
-0.2035515 -0.10411815 0.43273172
-0.20247214 -0.1013958 0.43650001
-0.20360483 -0.09587995 0.43241939
-0.20267144 -0.093021318 0.43421429
-0.20315886 -0.082853839 0.43466669
-0.20214559 -0.085942827 0.43145457
-0.20680501 -0.073237948 0.43550003
-0.20890506 -0.063185483 0.43392858
-0.20787324 -0.15060441 0.44550002
-0.20889452 -0.14814289 0.44600001
-0.20718493 -0.13108425 0.44371429
-0.20458382 -0.12355469 0.44219446
-0.20410885 -0.11455994 0.44239539
-0.20363085 -0.1058505 0.44243753
-0.20261438 -0.10235839 0.43966669
-0.20393009 -0.095114321 0.44440001
-0.20256078 -0.097763389 0.43900001
-0.20496036 -0.08551567 0.44375002
-0.20878726 -0.072720997 0.44400001
-0.21412942 -0.059826195 0.4465
-0.20818897 -0.064411826 0.44305086
-0.21108286 -0.15934686 0.45700002
-0.20903902 -0.15317108 0.45429415
-0.21155575 -0.14433587 0.45455003
-0.2082724 -0.13244307 0.45388892
-0.20520362 -0.12366623 0.45252177
-0.20500112 -0.11415058 0.45292595
-0.20501685 -0.10335423 0.45347622
-0.20579779 -0.094463862 0.45361906
-0.20764555 -0.083496466 0.45345163
-0.20931545 -0.074121341 0.45403334
-0.21465203 -0.059847768 0.45466667
-0.20832476 -0.063875549 0.45302859
-0.22341409 -0.17385133 0.46700001
-0.2161956 -0.17109792 0.46640003
-0.21129468 -0.16999514 0.46700001
-0.21399167 -0.16682285 0.46277779
-0.20907441 -0.16363825 0.46325457
-0.20770051 -0.15403128 0.46194342
-0.20922744 -0.14434493 0.46250001
-0.20839494 -0.13465051 0.46258977
-0.20628458 -0.12391537 0.46265221
-0.20608498 -0.11391944 0.46248278
-0.20639773 -0.10377273 0.46324003
-0.20655742 -0.094304115 0.46254286
-0.20759372 -0.083709255 0.46218184
-0.20824111 -0.074503072 0.46248981
-0.31363675 -0.059140764 0.46600002
-0.30942237 -0.059140764 0.46600002
-0.29329774 -0.060240172 0.46600002
-0.29030889 -0.059479073 0.46650001
-0.26790568 -0.060182083 0.46230772
-0.21456006 -0.059593819 0.46100003
-0.20818952 -0.063464813 0.46307549
-0.32792911 -0.053161658 0.46255386
-0.31756347 -0.053059846 0.46493423
-0.3082642 -0.05272916 0.46616668
-0.29817817 -0.052652601 0.46650794
-0.28984967 -0.054041982 0.46685454
-0.27530807 -0.056539379 0.46600002
-0.26823664 -0.056520082 0.46488374
-0.26211667 -0.058156367 0.46400002
-0.21674979 -0.058583446 0.46561539
-0.21182616 -0.058558155 0.46575001
-0.32806149 -0.043818623 0.46363002
-0.31795791 -0.043889236 0.46519771
-0.30805755 -0.043800071 0.46613795
-0.29915407 -0.045841508 0.46700001
-0.29023296 -0.047213063 0.46700001
-0.32834029 -0.034088071 0.46421361
-0.31779969 -0.033615332 0.46462339
-0.30818036 -0.033733696 0.46577421
-0.30020893 -0.031631485 0.46688461
-0.29007092 -0.029519998 0.46700001
-0.32836947 -0.023832278 0.46352226
-0.31814182 -0.02384478 0.4637531
-0.30804232 -0.023918504 0.46449465
-0.29800704 -0.023916768 0.46589658
-0.28789243 -0.023925101 0.46606252
-0.27791011 -0.023349835 0.46641096
-0.26908281 -0.022176711 0.46686363
-0.26087415 -0.019604106 0.46700001
-0.3281571 -0.013983325 0.46322224
-0.31778958 -0.013992039 0.46307597
-0.30779979 -0.014007698 0.46447527
-0.29821676 -0.014089046 0.46681482
-0.28787979 -0.014038316 0.46565792
-0.2782408 -0.014185559 0.46620691
-0.27017793 -0.017890248 0.46700001
-0.3275035 -0.0042316243 0.46094596
-0.31823027 -0.0040165936 0.46256125
-0.3079313 -0.0042051319 0.46494901
-0.29816082 -0.0041782344 0.46672842
-0.28788385 -0.0040614074 0.4654595
-0.27783784 -0.0042482493 0.46608248
-0.27079004 -0.0040875701 0.46700001
-0.25470424 -0.0053362381 0.46700001
-0.25187638 -0.0052811494 0.46700001
-0.32770663 0.0057980185 0.46157694
-0.31827718 0.0055041495 0.46310529
-0.307917 0.0057079815 0.46483874
-0.29805586 0.0058435509 0.46626192
-0.28903273 0.0055246311 0.46700001
-0.27826509 0.0065501207 0.46700001
-0.27062052 0.0083637973 0.46700001
-0.32790259 0.015512486 0.4620125
-0.31779668 0.015473121 0.46236265
-0.30783665 0.015548075 0.46388891
-0.29780072 0.015592505 0.46523258
-0.28799668 0.015628042 0.46632099
-0.27802661 0.015689962 0.46700001
-0.26771677 0.015763994 0.46696153
-0.25763053 0.016363835 0.46694368
-0.25132552 0.016386911 0.46700001
-0.32735619 0.025910486 0.46164894
-0.31791413 0.025744209 0.46285266
-0.30766824 0.025820529 0.46323714
-0.29790992 0.025967266 0.46402201
-0.28784692 0.025847545 0.46397829
-0.27801424 0.025924573 0.46511114
-0.26781046 0.025644474 0.46680683
-0.25760311 0.025511477 0.46696252
-0.24881013 0.025933409 0.46696669
-0.32741231 0.036312379 0.46184886
-0.31790429 0.036087081 0.46295241
-0.30767936 0.036255769 0.46311632
-0.29761228 0.036603045 0.46280557
-0.28801003 0.036329567 0.46368891
-0.27772322 0.036141306 0.46492475
-0.2678481 0.035459861 0.46667778
-0.25845024 0.034051891 0.46700001
-0.25132552 0.031811632 0.46700001
-0.23443176 0.038789485 0.46700001
-0.32770663 0.04589203 0.46217647
-0.31793466 0.046057984 0.46256793
-0.3079153 0.046133332 0.46188313
-0.29790518 0.046176538 0.46255791
-0.28830686 0.046029177 0.46442106
-0.27762377 0.046305578 0.46477911
-0.267629 0.045772702 0.46612248
-0.25903088 0.048614521 0.46674287
-0.24774875 0.04860957 0.46700001
-0.32757893 0.055931028 0.46225002
-0.31759182 0.055706456 0.46195948
-0.3078557 0.055749584 0.46145681
-0.29824772 0.055597838 0.46257958
-0.28812072 0.056109399 0.46413794
-0.27802294 0.056211751 0.46527782
-0.26758596 0.056209367 0.46525928
-0.25765914 0.056156978 0.46568608
-0.24882223 0.054990295 0.46685335
-0.23994058 0.054468464 0.46700001
-0.32761705 0.065628968 0.46238205
-0.31767419 0.065889917 0.46281251
-0.30785361 0.065658882 0.46289161
-0.29811469 0.065841123 0.46315002
-0.28794286 0.065845542 0.46357781
-0.27784932 0.06604404 0.46498892
-0.26798245 0.066184051 0.46595064
-0.25757083 0.06608478 0.46587503
-0.25144485 0.067620918 0.46694118
-0.32780328 0.075747482 0.46158826
-0.31785434 0.075932719 0.46175003
-0.30824602 0.076205887 0.46242356
-0.29793456 0.075814538 0.46192786
-0.28832129 0.07581614 0.46361908
-0.27779633 0.075510621 0.46346593
-0.26791626 0.07575617 0.46447623
-0.25782117 0.076031424 0.46489537
-0.24801084 0.076230556 0.4665843
-0.23798746 0.078202657 0.46700001
-0.23195279 0.079830267 0.46700001
-0.3269712 0.085959315 0.4600139
-0.31783605 0.086133964 0.46093336
-0.30802551 0.086386107 0.46138963
-0.29769686 0.086180627 0.46230954
-0.28822553 0.085496925 0.46323752
-0.27800602 0.085505918 0.46342224
-0.26776499 0.085763022 0.46411768
-0.25789022 0.085492775 0.46471086
-0.24834885 0.086247399 0.46579272
-0.23742893 0.086653359 0.46654931
-0.23029026 0.087197609 0.466925
-0.32708928 0.095766239 0.46018058
-0.31805986 0.095987447 0.46125558
-0.30757391 0.095910534 0.46095002
-0.29747331 0.095820732 0.46151581
-0.28803733 0.095704712 0.46351042
-0.27777299 0.095562749 0.46447676
-0.26762736 0.09580759 0.46409461
-0.2581405 0.09562891 0.46385717
-0.24809311 0.09543775 0.46418825
-0.23810251 0.095719643 0.46494189
-0.22836521 0.096162319 0.46632144
-0.21900703 0.098885804 0.46700001
-0.20897517 0.099618554 0.46700001
-0.32742622 0.1056414 0.4606528
-0.31796911 0.10596334 0.4605532
-0.30764171 0.10579324 0.46075296
-0.2975032 0.10582718 0.46144447
-0.28776097 0.10606598 0.46351066
-0.27779463 0.10585837 0.46397778
-0.26757324 0.10584566 0.46318394
-0.25764495 0.1058893 0.46337932
-0.24812461 0.1056696 0.46453193
-0.23797141 0.10573975 0.46556628
-0.2279292 0.105785 0.46632957
-0.21929559 0.10547255 0.46700001
-0.20947675 0.10263681 0.46700001
-0.32714051 0.11567374 0.45948574
-0.31787848 0.11591402 0.45880726
-0.30818239 0.11576454 0.460217
-0.29763451 0.11567215 0.46164447
-0.28819647 0.11591137 0.46363857
-0.27774486 0.11592668 0.46401301
-0.26760173 0.11610904 0.46338275
-0.25738943 0.11594089 0.46271607
-0.24788766 0.11574546 0.46434069
-0.23797801 0.11549606 0.465321
-0.2283017 0.11559534 0.46644187
-0.21875454 0.11458179 0.46700001
-0.21239644 0.11370957 0.46700001
-0.32669285 0.125727 0.4591364
-0.3176569 0.1262383 0.45930234
-0.3080107 0.12565486 0.46084094
-0.29772115 0.12548824 0.46186519
-0.28822139 0.12561102 0.46391308
-0.27810541 0.12563135 0.46342355
-0.2679376 0.12608212 0.46341863
-0.25780424 0.12612769 0.4636988
-0.24781498 0.12592685 0.46468821
-0.23761743 0.12582716 0.46475863
-0.22871096 0.12611896 0.46592772
-0.32716233 0.13603179 0.46012861
-0.31735295 0.13581234 0.46004349
-0.30772218 0.13589537 0.46183872
-0.29806724 0.13563266 0.46285716
-0.28746706 0.13560019 0.46142858
-0.27787611 0.1356111 0.46113485
-0.26777777 0.13584866 0.46160787
-0.25797275 0.13613759 0.46313044
-0.24818537 0.13602297 0.46446431
-0.23775844 0.13617297 0.46426746
-0.22755699 0.13605815 0.46541306
-0.21839027 0.1371879 0.46659678
-0.2101929 0.1384993 0.46700001
-0.32725829 0.14577743 0.46041667
-0.31745327 0.14576699 0.46037778
-0.30777702 0.14599404 0.46188506
-0.29800612 0.1460731 0.46262106
-0.28775468 0.14612606 0.46151391
-0.277823 0.14577563 0.46039507
-0.26740748 0.14572302 0.46023336
-0.25745296 0.14589694 0.46184617
-0.24810015 0.1457065 0.4635976
-0.23808099 0.14569245 0.46400002
-0.22747739 0.14579909 0.46352944
-0.21800172 0.14573626 0.46600002
-0.20858541 0.14542598 0.46700001
-0.19988352 0.14743148 0.46700001
-0.32690835 0.15593147 0.459925
-0.31781557 0.15593652 0.46069476
-0.30755305 0.1560393 0.46069768
-0.29823062 0.15620507 0.46092048
-0.28790462 0.15590873 0.46021113
-0.27790871 0.15552323 0.46035445
-0.2676017 0.15556242 0.46057448
-0.25751561 0.15603726 0.46144187
-0.24838467 0.15596719 0.4637917
-0.23788437 0.15537784 0.46355265
-0.22764319 0.15583463 0.46444902
-0.21913412 0.15582247 0.4668276
-0.19896866 0.15247795 0.46700001
-0.32673648 0.16584407 0.45901564
-0.31776151 0.16563638 0.45941761
-0.30812067 0.16641791 0.45991668
-0.29792738 0.16608553 0.46002325
-0.28766662 0.16615595 0.46047315
-0.27799252 0.16587168 0.46177381
-0.26789343 0.16597131 0.4621163
-0.2576935 0.16589162 0.4616757
-0.24805377 0.16582505 0.46327725
-0.23771779 0.16573696 0.46406898
-0.2272803 0.16580258 0.4647778
-0.21831748 0.1641006 0.4668
-0.21239644 0.16328903 0.46700001
-0.32679319 0.17348649 0.45900002
-0.31813005 0.17348649 0.45900002
-0.30789623 0.17351635 0.45908001
-0.2974979 0.17345259 0.45891112
-0.28748167 0.17359337 0.45961541
-0.27807668 0.1737411 0.46098185
-0.26803854 0.17400438 0.46211112
-0.25764236 0.17435716 0.46267274
-0.24782896 0.17440289 0.46287039
-0.23771122 0.17426208 0.46370003
-0.22741005 0.17429435 0.46426156
-0.21910176 0.17589055 0.46593481
-0.21129467 0.17871375 0.46700001
-0.19581576 0.17689154 0.46686956
-0.18783402 0.17595798 0.46662745
-0.1824284 0.17717128 0.46700001
-0.2159095 -0.18967631 0.47350001
-0.20698607 -0.18986259 0.47511768
-0.19796026 -0.19011626 0.47600001
-0.18841477 -0.19011626 0.47600001
-0.17907441 -0.19041649 0.47722223
-0.23426603 -0.18696116 0.47011113
-0.22775495 -0.18494314 0.47104168
-0.21806948 -0.18409394 0.47167471
-0.20807381 -0.18409587 0.47463337
-0.19785118 -0.18385911 0.47606757
-0.18801565 -0.18419419 0.47656325
-0.17909351 -0.1840753 0.47738984
-0.22433764 -0.17685424 0.46944445
-0.21743265 -0.17583367 0.46953192
-0.20775835 -0.17432386 0.47284341
-0.1979513 -0.17394051 0.47598889
-0.18772337 -0.17423376 0.47709879
-0.17786379 -0.17449898 0.47782719
-0.17140459 -0.17279105 0.47800002
-0.20496449 -0.16442569 0.47151789
-0.19756405 -0.16443673 0.47625679
-0.18780999 -0.16388504 0.47680956
-0.17779717 -0.16426452 0.4771795
-0.168274 -0.16342455 0.47742257
-0.15981351 -0.16181567 0.47792003
-0.20528799 -0.15403357 0.47147542
-0.19799431 -0.15377331 0.47473612
-0.18785213 -0.15384182 0.47478086
-0.17801569 -0.15375039 0.47672731
-0.16834192 -0.15555017 0.47757897
-0.15786165 -0.15686668 0.47800002
-0.15154065 -0.15674524 0.47800002
-0.20578966 -0.14403614 0.47078183
-0.19821402 -0.14401059 0.47406745
-0.18822779 -0.14448965 0.47553089
-0.17792606 -0.14422013 0.47631648
-0.1690594 -0.14260833 0.47765309
-0.20617971 -0.13411081 0.47192067
-0.19797644 -0.1340692 0.47391865
-0.1881482 -0.13434145 0.47533336
-0.1781812 -0.1344126 0.47602412
-0.1683576 -0.13409416 0.47692594
-0.20553772 -0.12450882 0.47160873
-0.19771177 -0.12372981 0.47340003
-0.18793213 -0.12410358 0.47479016
-0.17783774 -0.12443445 0.47625002
-0.16794381 -0.12372287 0.47782859
-0.15912914 -0.12178822 0.47778574
-0.13688032 -0.12009441 0.47800002
-0.20518976 -0.1142436 0.47058699
-0.19832274 -0.11403827 0.4742609
-0.18831332 -0.11431404 0.47588751
-0.17785628 -0.11438704 0.47614607
-0.16767031 -0.11423402 0.47706497
-0.15752658 -0.11411893 0.47747439
-0.15142788 -0.11112906 0.47800002
-0.13789527 -0.11733151 0.47800002
-0.2051107 -0.10421003 0.47019151
-0.19809082 -0.10411942 0.47361252
-0.18811758 -0.10410535 0.47500002
-0.17777434 -0.10432744 0.47576746
-0.16795303 -0.10422906 0.47670132
-0.15816675 -0.1042413 0.47648719
-0.15066195 -0.10356484 0.47782052
-0.20534129 -0.094230294 0.47104448
-0.1982255 -0.094215296 0.4731932
-0.18801627 -0.093527056 0.47365478
-0.17801973 -0.093920521 0.47538751
-0.16790715 -0.094251812 0.47676668
-0.1575947 -0.094482332 0.47772503
-0.15096654 -0.097570822 0.47800002
-0.20558417 -0.083997503 0.47057694
-0.19824994 -0.084367067 0.47291142
-0.18816061 -0.083746374 0.47467062
-0.17815231 -0.083972052 0.47595182
-0.16815886 -0.084072687 0.47637182
-0.1575385 -0.084142379 0.47714636
-0.15136893 -0.08245495 0.47793335
-0.20561861 -0.074316867 0.47065386
-0.1980551 -0.074412726 0.4722099
-0.18826726 -0.074250251 0.47395125
-0.17785551 -0.074216805 0.47495893
-0.16790134 -0.073739648 0.4759059
-0.15762027 -0.074168339 0.4769884
-0.15152186 -0.073162578 0.47800002
-0.20529611 -0.063826449 0.47026533
-0.19787616 -0.064161927 0.4728989
-0.18796207 -0.06428279 0.47412905
-0.17787628 -0.064666554 0.47371626
-0.16796978 -0.063845441 0.47479764
-0.1580987 -0.063833967 0.47639507
-0.14792939 -0.063688844 0.47718826
-0.14152007 -0.061308112 0.47800002
-0.2851195 -0.051727045 0.46855557
-0.27820492 -0.051998273 0.46852276
-0.26739326 -0.051618088 0.46868891
-0.25756136 -0.053310607 0.46971643
-0.24841364 -0.053096935 0.46995163
-0.23778623 -0.052867454 0.46977276
-0.22788563 -0.053887796 0.47127634
-0.21799123 -0.053694434 0.47129169
-0.20784949 -0.054326598 0.47138557
-0.19818503 -0.054358974 0.47354025
-0.18774183 -0.054127686 0.47445208
-0.17767248 -0.054599311 0.47430867
-0.16782203 -0.053801913 0.475618
-0.15786904 -0.053842209 0.47621053
-0.14770247 -0.053774096 0.47691113
-0.1413724 -0.054273304 0.47800002
-0.29740143 -0.041761745 0.46864584
-0.28738534 -0.043604951 0.46877274
-0.27784458 -0.044006906 0.46857834
-0.26779625 -0.043903615 0.46902356
-0.25799313 -0.044102691 0.46977779
-0.2481094 -0.044120286 0.46995065
-0.23772065 -0.044148337 0.47024447
-0.2276216 -0.04407635 0.470137
-0.2182159 -0.044302016 0.47137082
-0.20794089 -0.044302139 0.47188893
-0.19800696 -0.044323038 0.4720988
-0.18813992 -0.044541873 0.47315297
-0.17805398 -0.044427454 0.47446513
-0.1678154 -0.044254251 0.47615001
-0.15793067 -0.044155903 0.47696927
-0.14802034 -0.044215161 0.47635618
-0.13921829 -0.043359026 0.47734484
-0.2974686 -0.035186447 0.46906945
-0.28767335 -0.034219086 0.46898553
-0.27786258 -0.03396558 0.46861178
-0.26770681 -0.034110092 0.4689762
-0.25785285 -0.034224253 0.47000003
-0.2477966 -0.034043051 0.46979225
-0.23765281 -0.034145247 0.47000003
-0.2273787 -0.034155838 0.47015193
-0.21782894 -0.034231391 0.47117859
-0.20805947 -0.034301475 0.47216052
-0.19757988 -0.034223564 0.4710741
-0.18800499 -0.034302056 0.47216052
-0.17808722 -0.034430165 0.47392225
-0.16759761 -0.03445917 0.47429633
-0.15792409 -0.03454553 0.47549385
-0.14825092 -0.034849878 0.47681016
-0.13976827 -0.035787553 0.47755557
-0.28406733 -0.02737496 0.46800002
-0.27790263 -0.028203055 0.46800002
-0.26670778 -0.025991196 0.46836364
-0.25784075 -0.024127128 0.46869048
-0.24773425 -0.024023674 0.46898797
-0.23782107 -0.024093423 0.47010347
-0.22746639 -0.024266297 0.47041669
-0.21783185 -0.024248717 0.47161731
-0.20796202 -0.024265453 0.47193831
-0.19776492 -0.024241658 0.47151855
-0.18816119 -0.024331829 0.47271955
-0.1780047 -0.024338415 0.47385398
-0.16773646 -0.024405958 0.47469139
-0.15798037 -0.024457617 0.47566667
-0.14886014 -0.023739221 0.47748533
-0.14161673 -0.021419134 0.47800002
-0.27399218 -0.013021334 0.46800002
-0.2677733 -0.013616467 0.46821919
-0.25806516 -0.014166864 0.46800002
-0.24797544 -0.014143489 0.46865559
-0.23793036 -0.014321385 0.47019771
-0.22788577 -0.013989081 0.47014287
-0.21807154 -0.014266716 0.47105619
-0.20771807 -0.014227559 0.47138274
-0.19801635 -0.014249479 0.47212347
-0.1883432 -0.014276372 0.47300002
-0.17805627 -0.014405322 0.47337934
-0.16778019 -0.014280006 0.47392687
-0.15761429 -0.014221404 0.47415665
-0.14791906 -0.014425348 0.4760122
-0.13857773 -0.013882951 0.4772113
-0.13031976 -0.011650462 0.4777917
-0.11622699 -0.010963582 0.47800002
-0.26664025 -0.004304016 0.46808624
-0.2590037 -0.0037282812 0.46800002
-0.24763285 -0.0041152425 0.46865478
-0.2378162 -0.0042007319 0.46933335
-0.22788692 -0.0041194283 0.4703182
-0.21780381 -0.0043124352 0.47126508
-0.20785868 -0.0042219455 0.47170374
-0.19801719 -0.004225906 0.47212347
-0.18813141 -0.0042295819 0.47246915
-0.17803469 -0.004228909 0.47229633
-0.16795863 -0.0041034194 0.47308141
-0.15762931 -0.0043018661 0.47346991
-0.14788544 -0.0043185349 0.47525305
-0.13803831 -0.0042635896 0.47655559
-0.12894948 -0.0043246271 0.47779414
-0.11883147 -0.0057814508 0.47800002
-0.28764683 0.0059981113 0.46800002
-0.27722654 0.0035885482 0.46800002
-0.26745674 0.0052454416 0.46800002
-0.25812039 0.005748793 0.46800002
-0.24794129 0.0057542701 0.46858892
-0.23792775 0.0057685417 0.46955559
-0.22807072 0.0056798728 0.47006026
-0.21804506 0.0057368139 0.47048196
-0.20784998 0.0059137065 0.47095349
-0.19768114 0.0057866164 0.47132102
-0.18823871 0.0058071436 0.47274077
-0.17798032 0.0058009131 0.47214818
-0.16770624 0.0056651863 0.47220004
-0.15782385 0.0059524989 0.47422096
-0.14799559 0.0058446634 0.47603706
-0.1382245 0.0058618896 0.47719756
-0.12924655 0.0059410282 0.47800002
-0.12267108 0.0024884776 0.47800002
-0.26474515 0.011269419 0.46800002
-0.25802001 0.01147017 0.46800002
-0.24754423 0.015544057 0.46819514
-0.23813981 0.01583584 0.46971086
-0.22815795 0.015751362 0.46996298
-0.21815048 0.015748886 0.46990126
-0.20819163 0.0157013 0.4700976
-0.19777639 0.015759794 0.4702273
-0.18804894 0.015874527 0.47209758
-0.17822146 0.015847111 0.47279015
-0.16793327 0.01593437 0.4724699
-0.15778008 0.015686076 0.47338375
-0.147634 0.015914379 0.4740741
-0.1381641 0.016037285 0.47653013
-0.12918134 0.016189674 0.4779394
-0.11690719 0.019717496 0.47800002
-0.11118887 0.01930172 0.47800002
-0.24513346 0.02504977 0.46804351
-0.238188 0.025575023 0.4689773
-0.22785443 0.025900887 0.46974421
-0.21804248 0.025718702 0.47045574
-0.20816654 0.025642991 0.47013927
-0.19782653 0.025794467 0.4702135
-0.18792789 0.025778878 0.4717927
-0.17808563 0.025864596 0.47243214
-0.16791891 0.025929479 0.47363335
-0.15777344 0.026043374 0.47375679
-0.147788 0.025860205 0.4739432
-0.13795446 0.026075566 0.47627163
-0.12832452 0.026220631 0.47790003
-0.11837072 0.02586982 0.47800002
-0.11113366 0.023134382 0.47800002
-0.25669572 0.037875272 0.46800002
-0.24765019 0.035731167 0.46828398
-0.23809177 0.035671558 0.46831083
-0.22793297 0.035584677 0.46968001
-0.2180942 0.036007918 0.47227502
-0.20809418 0.035978939 0.47156581
-0.19768208 0.035471682 0.4701446
-0.18786505 0.035925925 0.47130954
-0.17804945 0.035887714 0.47233337
-0.16817133 0.035921972 0.47276545
-0.15803587 0.036092788 0.47325885
-0.14795223 0.035971295 0.47409758
-0.13787948 0.036019158 0.47509414
-0.12785275 0.036188055 0.47630867
-0.11817385 0.036572769 0.47746053
-0.11132343 0.038082063 0.47800002
-0.25746608 0.044188704 0.46800002
-0.24814519 0.044221841 0.46800002
-0.23818487 0.045552459 0.46801221
-0.22799329 0.045506977 0.46860677
-0.21794704 0.045559812 0.46989289
-0.20796666 0.045713797 0.47041467
-0.19792442 0.045797598 0.4701266
-0.18774186 0.045768432 0.47038639
-0.17764176 0.045813743 0.47125927
-0.16789529 0.045877498 0.47272944
-0.15777113 0.046162706 0.47405818
-0.14767933 0.046178017 0.47501391
-0.13768503 0.04621147 0.47533336
-0.12772979 0.046260357 0.47583953
-0.11798346 0.046193384 0.47664937
-0.1122397 0.044214025 0.47800002
-0.24535394 0.057918705 0.46800002
-0.23696631 0.055636823 0.46813563
-0.22810517 0.055705279 0.46919769
-0.21807754 0.055640936 0.46974078
-0.20785491 0.05564307 0.46852633
-0.19794875 0.055373795 0.46855816
-0.1878279 0.055708546 0.47032225
-0.17753145 0.055784483 0.47096297
-0.16764978 0.055822916 0.47129631
-0.15801434 0.055954006 0.47240743
-0.14790134 0.056137756 0.47394449
-0.13777886 0.056260258 0.47546253
-0.12790221 0.056383517 0.47602472
-0.11792814 0.055806428 0.47761336
-0.10931213 0.056021027 0.47716951
-0.24726599 0.065286621 0.46800002
-0.23813713 0.065471798 0.46804821
-0.22818172 0.065439545 0.46911365
-0.21815692 0.065638989 0.4699136
-0.20782231 0.065527335 0.46911111
-0.19809309 0.065790735 0.47013098
-0.1878127 0.065637328 0.47071266
-0.17781571 0.06589435 0.47171608
-0.16767287 0.065842912 0.47135806
-0.15764391 0.066109464 0.4726364
-0.14799459 0.066047594 0.47401336
-0.13835961 0.0662627 0.47398752
-0.12817973 0.066031545 0.47505817
-0.11775947 0.065483816 0.47637805
-0.10974833 0.066607967 0.47575003
-0.2464482 0.071049906 0.46800002
-0.23810056 0.074993029 0.46802902
-0.22813413 0.075618468 0.46901113
-0.21820222 0.075632758 0.47001237
-0.20782734 0.075488761 0.46912348
-0.19781955 0.075682551 0.47033337
-0.18771987 0.075859934 0.47143212
-0.17786627 0.0759262 0.47185189
-0.16786537 0.075935572 0.47190127
-0.15811208 0.076065548 0.47270373
-0.14827266 0.076166287 0.47333336
-0.13834284 0.076233916 0.47374079
-0.12803207 0.075756699 0.47498867
-0.11758775 0.075479515 0.4756875
-0.10896855 0.075742066 0.47530192
-0.24473287 0.08317557 0.46800002
-0.24105664 0.082836807 0.46800002
-0.22603005 0.085016057 0.46838462
-0.2181586 0.085702524 0.46912646
-0.20790377 0.085483491 0.46929631
-0.19790037 0.085438713 0.46936586
-0.18804781 0.085558459 0.46995124
-0.17795108 0.085862502 0.47090912
-0.16756232 0.085801333 0.4710494
-0.15785013 0.0859579 0.47191361
-0.14783879 0.085962139 0.47195065
-0.13813171 0.086159326 0.47302473
-0.12802003 0.085620113 0.47535634
-0.11815226 0.0854991 0.47701317
-0.1102624 0.08597476 0.47732434
-0.22426055 0.0931587 0.46800002
-0.21808833 0.095338158 0.46850619
-0.20784536 0.094831638 0.46882194
-0.1978254 0.095969036 0.4684681
-0.18826105 0.095631324 0.46987808
-0.17787527 0.095592178 0.47025844
-0.16753821 0.095803417 0.47079271
-0.15795451 0.096043877 0.47223461
-0.14803144 0.096341178 0.47182193
-0.13764781 0.096147455 0.47330004
-0.12787955 0.095768422 0.47640744
-0.1181151 0.096084118 0.47741774
-0.1094187 0.095775545 0.47755361
-0.21687141 0.1067904 0.46800002
-0.20794605 0.1073283 0.46800002
-0.19803324 0.10627309 0.46821114
-0.18803182 0.10599773 0.4694432
-0.17834799 0.1056098 0.47018522
-0.16789 0.1055772 0.47025844
-0.15770057 0.10590647 0.47126833
-0.14766878 0.10588086 0.47139508
-0.13786279 0.10594288 0.47262654
-0.12801893 0.1057962 0.47549427
-0.11781676 0.10592651 0.47660497
-0.11006167 0.10439871 0.4763
-0.22444457 0.12002574 0.46800002
-0.2170483 0.11819744 0.46808827
-0.20825978 0.11633343 0.4683049
-0.19811279 0.11624771 0.4688046
-0.18783461 0.11581228 0.46909592
-0.17791253 0.11584033 0.46916854
-0.16830894 0.11572694 0.46967062
-0.1580306 0.11574726 0.47080001
-0.147663 0.11589146 0.47138274
-0.13799937 0.11596742 0.47243753
-0.12817396 0.115564 0.47498867
-0.11748102 0.11567943 0.47471088
-0.109534 0.11619679 0.47527909
-0.22431716 0.12490937 0.46800002
-0.21833721 0.12631859 0.46900001
-0.20796704 0.1264838 0.46943212
-0.19784544 0.12638757 0.4690741
-0.18836977 0.12567471 0.47004822
-0.17826164 0.12596069 0.46979454
-0.16770208 0.12583494 0.47016472
-0.15780488 0.12589768 0.47158539
-0.14787261 0.12607573 0.47204942
-0.13796313 0.12613298 0.47277111
-0.128408 0.12566492 0.47371769
-0.118025 0.12579678 0.47520003
-0.10899696 0.12564658 0.47634616
-0.21701947 0.13270396 0.46838462
-0.20723534 0.13519062 0.46853971
-0.19796669 0.13641283 0.46889287
-0.18777578 0.13579758 0.4699091
-0.17788199 0.13565719 0.47075644
-0.16792797 0.13557607 0.47005004
-0.15801969 0.13586269 0.47064838
-0.14812979 0.13596748 0.4719595
-0.13808219 0.13633129 0.47285187
-0.12807535 0.13607934 0.47312197
-0.11775923 0.13581993 0.47396776
-0.10986442 0.13634059 0.47660467
-0.20661294 0.14669037 0.46800002
-0.19694395 0.14522047 0.46816131
-0.18779352 0.14589742 0.46966305
-0.17824306 0.14584082 0.47024053
-0.16825436 0.145776 0.47018296
-0.15792212 0.14550781 0.47024053
-0.14785822 0.14576879 0.47079313
-0.13787268 0.14614624 0.47213584
-0.12795307 0.14626668 0.47251853
-0.11766966 0.14599688 0.47401151
-0.10916281 0.14528424 0.47614548
-0.2150595 0.15643787 0.46800002
-0.20846511 0.15603799 0.46821955
-0.19764045 0.15659548 0.4681918
-0.18775675 0.15616155 0.4687531
-0.17784171 0.15573189 0.46970934
-0.16780509 0.15566722 0.47100002
-0.15757394 0.155826 0.47108644
-0.14744991 0.1554819 0.4703418
-0.13781801 0.15605457 0.47149399
-0.12809804 0.15591812 0.47283563
-0.11781467 0.1560245 0.4747614
-0.10964647 0.15677734 0.47492003
-0.21697928 0.16887535 0.46833336
-0.20787458 0.16580333 0.46825612
-0.1979267 0.16624652 0.46879762
-0.18781236 0.16616073 0.46888891
-0.17792732 0.16598307 0.47040862
-0.16784893 0.16566075 0.47102633
-0.15816724 0.16567177 0.4702338
-0.14793384 0.16554083 0.47030339
-0.13765188 0.16586308 0.47114635
-0.12804714 0.16565408 0.47268239
-0.11796226 0.16565622 0.47400004
-0.10940536 0.16629238 0.47489095
-0.21652599 0.17365886 0.46872225
-0.20804068 0.17543557 0.46874627
-0.19892576 0.17411661 0.46800002
-0.18735601 0.17232113 0.46800002
-0.17773132 0.1754033 0.46869016
-0.16804802 0.1756829 0.4701905
-0.15811521 0.17531197 0.47007796
-0.14777756 0.1754214 0.46998891
-0.13773119 0.17604437 0.47165436
-0.12778445 0.17601466 0.47228238
-0.11815772 0.17567378 0.47295296
-0.10972804 0.17532846 0.47434047
-0.11590483 0.18116294 0.47340003
-0.10990261 0.18139255 0.47400004
-0.1741516 -0.1907955 0.47940004
-0.16772799 -0.19140795 0.48085716
-0.15716536 -0.19112125 0.48096973
-0.1478714 -0.19105117 0.48057145
-0.13811813 -0.1911063 0.48120004
-0.12803224 -0.19105594 0.48119447
-0.11804474 -0.19143112 0.4821389
-0.10779497 -0.19155607 0.48264867
-0.09900859 -0.19236505 0.48621953
-0.17431751 -0.18569203 0.47926089
-0.16800182 -0.18404932 0.47993508
-0.15797649 -0.18429065 0.48045683
-0.1476611 -0.18420841 0.48039132
-0.13827991 -0.18427761 0.48109591
-0.12805049 -0.18393689 0.48142311
-0.11775749 -0.18418828 0.48140544
-0.10798965 -0.1841979 0.48271251
-0.099282391 -0.18394539 0.48580003
-0.092810169 -0.18014783 0.48700002
-0.16724826 -0.1743398 0.4793016
-0.15799548 -0.17438835 0.48029888
-0.14776911 -0.17406458 0.48010668
-0.13771385 -0.17392144 0.47933337
-0.12785369 -0.1739461 0.48059213
-0.118024 -0.17417775 0.48222226
-0.10800767 -0.17440467 0.48354432
-0.097958513 -0.17387158 0.48352703
-0.087999701 -0.17387345 0.4854627
-0.079110965 -0.17227446 0.48668295
-0.068969443 -0.1700945 0.48700002
-0.056670446 -0.1711129 0.48700002
-0.052137312 -0.17118602 0.48700002
-0.16544685 -0.16772415 0.47900003
-0.15685114 -0.1653371 0.47921279
-0.1478371 -0.1641957 0.47960001
-0.13798487 -0.16405839 0.48027164
-0.12782748 -0.16398871 0.48022503
-0.11814096 -0.16457947 0.48317569
-0.10794995 -0.16413206 0.48376626
-0.098210007 -0.16437964 0.48368922
-0.087867476 -0.16427246 0.48573172
-0.07792642 -0.16384569 0.48558667
-0.067681342 -0.16392407 0.48605198
-0.059112314 -0.16492613 0.48692456
-0.052596893 -0.16808385 0.48700002
-0.16672949 -0.15151319 0.47900003
-0.15774484 -0.1521654 0.47900003
-0.14767887 -0.15426227 0.47909594
-0.13787456 -0.15431093 0.47988892
-0.12761793 -0.15399632 0.48014104
-0.11789556 -0.15426779 0.4815309
-0.10800786 -0.15415849 0.48318183
-0.09795481 -0.15392891 0.48403707
-0.087988928 -0.15387096 0.48542467
-0.077561833 -0.15424812 0.48598686
-0.067728333 -0.15412611 0.48649317
-0.061788496 -0.15831777 0.48700002
-0.16621308 -0.14640251 0.47900003
-0.15796411 -0.14441991 0.47901237
-0.14786808 -0.14449295 0.47925928
-0.13786015 -0.1442102 0.48002249
-0.12799855 -0.14396995 0.48061907
-0.11787824 -0.1440233 0.48145682
-0.10805619 -0.14421301 0.48267952
-0.098028168 -0.14433211 0.48440281
-0.08766719 -0.14411704 0.48480523
-0.077672504 -0.14439683 0.48453522
-0.068475224 -0.14409263 0.48592541
-0.16403426 -0.13156167 0.47900003
-0.15815912 -0.13441372 0.47960496
-0.14786792 -0.13431957 0.47925928
-0.13813834 -0.13420013 0.48060277
-0.12794642 -0.13402691 0.48142859
-0.11799351 -0.13392478 0.48192596
-0.10786352 -0.13405795 0.48239508
-0.097785175 -0.13428366 0.48319754
-0.087814629 -0.13419826 0.48397371
-0.077388458 -0.13439424 0.4847683
-0.069536678 -0.13499768 0.48665959
-0.16425623 -0.12714227 0.47900003
-0.15698317 -0.12569866 0.47946942
-0.14788981 -0.12415905 0.479321
-0.13771027 -0.12462656 0.47909862
-0.12792152 -0.12409753 0.48023686
-0.1178677 -0.1240225 0.48202634
-0.107853 -0.12380438 0.4823457
-0.097791828 -0.12403157 0.48323458
-0.087533809 -0.12403679 0.48324692
-0.077680722 -0.12433484 0.48537976
-0.070554569 -0.12274285 0.48700002
-0.15343979 -0.11842453 0.47900003
-0.14735596 -0.11418287 0.47900003
-0.13757995 -0.11352053 0.47908223
-0.12771352 -0.11414202 0.48000002
-0.11793154 -0.11416329 0.48107797
-0.10767438 -0.11394264 0.48154169
-0.097592905 -0.11410969 0.48225003
-0.087274596 -0.11401032 0.48241892
-0.077569611 -0.11407679 0.48476252
-0.068322182 -0.11399838 0.48663336
-0.1456046 -0.10406 0.47900003
-0.13766026 -0.10376649 0.47914818
-0.12778439 -0.10400804 0.48027164
-0.11776701 -0.10416666 0.48100004
-0.10768708 -0.10429677 0.48160496
-0.097572319 -0.10441417 0.48214817
-0.087758459 -0.10434976 0.48256001
-0.077535324 -0.10391364 0.48396343
-0.06998805 -0.10609719 0.48644829
-0.15343979 -0.091302693 0.47900003
-0.14737216 -0.093823634 0.47900003
-0.13762997 -0.093832888 0.47950003
-0.12777485 -0.093804717 0.48023459
-0.11768543 -0.093890488 0.4806667
-0.10776465 -0.094141483 0.48196298
-0.097867303 -0.094460897 0.48360497
-0.08764638 -0.094513722 0.48386422
-0.077698044 -0.094328128 0.48426029
-0.068045624 -0.092078052 0.48620456
-0.059040025 -0.091022871 0.4867667
-0.14699666 -0.084893301 0.47900003
-0.13790511 -0.084254436 0.47953334
-0.12771311 -0.084003702 0.48005408
-0.11738832 -0.083975345 0.47989193
-0.10770851 -0.083864368 0.48171607
-0.097751275 -0.084093854 0.48302472
-0.087442093 -0.084045209 0.48274076
-0.077856496 -0.084144868 0.48333335
-0.068445042 -0.084074348 0.48427275
-0.058210082 -0.084028348 0.48594448
-0.052596893 -0.084784925 0.48700002
-0.14715059 -0.074565649 0.47921741
-0.13792582 -0.074516952 0.48007411
-0.12795401 -0.074522212 0.48084813
-0.11781559 -0.074334182 0.48137352
-0.10775987 -0.073668383 0.48192596
-0.097638614 -0.073752902 0.48246914
-0.087275036 -0.073652409 0.4818272
-0.077886939 -0.07391268 0.48351392
-0.068205297 -0.073930524 0.48364198
-0.058908653 -0.074759252 0.48634785
-0.14411667 -0.068418637 0.47900003
-0.13743529 -0.064544499 0.47975677
-0.12791102 -0.064415894 0.48074079
-0.11776415 -0.064135186 0.48038962
-0.10763691 -0.063933805 0.48137504
-0.097526945 -0.064006113 0.48193058
-0.087475948 -0.063943282 0.48351318
-0.077652708 -0.063577652 0.48414287
-0.067804396 -0.063878812 0.48532102
-0.06143561 -0.065335989 0.48680955
-0.13694321 -0.053955503 0.47910148
-0.12768357 -0.054110032 0.47988892
-0.11770771 -0.054068875 0.47953951
-0.1076767 -0.054134168 0.48009306
-0.097442657 -0.05429291 0.48151854
-0.087587997 -0.054221466 0.48297402
-0.077663213 -0.054139689 0.48401472
-0.067944877 -0.054062836 0.48480001
-0.059019197 -0.053305935 0.48623079
-0.050298993 -0.050316401 0.48700002
-0.13465713 -0.044657797 0.47900003
-0.1274673 -0.043846857 0.47907409
-0.11750319 -0.043924704 0.47992596
-0.10771569 -0.043804072 0.48010668
-0.097815946 -0.044180583 0.48143682
-0.087572604 -0.044248987 0.48346916
-0.077965036 -0.04429708 0.48400003
-0.068259113 -0.04429708 0.48400003
-0.058012404 -0.044322986 0.48427162
-0.048844531 -0.044105109 0.48642626
-0.14505839 -0.030090198 0.47900003
-0.13630782 -0.032493494 0.47900003
-0.12744802 -0.033668775 0.47900003
-0.11745067 -0.033718958 0.47971606
-0.10760208 -0.033898886 0.48016885
-0.097900212 -0.033831906 0.48128399
-0.087751344 -0.033869941 0.48201221
-0.078047156 -0.033832606 0.48324001
-0.068237051 -0.034010567 0.48385188
-0.058087081 -0.033990797 0.48441252
-0.047975998 -0.034119681 0.48620003
-0.040741812 -0.032194313 0.48700002
-0.14526336 -0.026555937 0.47900003
-0.13729824 -0.02425709 0.47900003
-0.1276398 -0.024097633 0.47972223
-0.11744697 -0.024098171 0.47969446
-0.10788616 -0.024110837 0.47995314
-0.098312065 -0.024123413 0.48020837
-0.088237755 -0.024156511 0.48087505
-0.078144081 -0.023840385 0.48241028
-0.068185367 -0.023720078 0.48349383
-0.058093082 -0.023789976 0.48493829
-0.047939856 -0.023860648 0.48640743
-0.040065315 -0.024077574 0.48700002
-0.13475005 -0.017847698 0.47900003
-0.12678306 -0.015366926 0.47945163
-0.11798009 -0.015431691 0.4792951
-0.10790399 -0.014297813 0.48031768
-0.097720154 -0.014489146 0.481038
-0.087737806 -0.014567954 0.48226508
-0.07804282 -0.014290476 0.48292649
-0.06811808 -0.014008441 0.48300001
-0.058025859 -0.01404892 0.48438892
-0.047872264 -0.014089623 0.48572224
-0.038874149 -0.01307652 0.48659578
-0.03191578 -0.010103126 0.48700002
-0.12445664 -0.0040873517 0.47900003
-0.11668235 -0.0023746754 0.47917953
-0.10788604 -0.0045714304 0.47996345
-0.097680755 -0.0041751782 0.4813765
-0.087481566 -0.0044185854 0.48232913
-0.077953778 -0.0042168153 0.4830811
-0.068210386 -0.0043262751 0.48365435
-0.05799466 -0.0043318486 0.48411113
-0.047832552 -0.0043407953 0.48529631
-0.038709376 -0.0051276674 0.48469093
-0.031037683 -0.0063667987 0.48675001
-0.12415197 0.0058368277 0.47900003
-0.11742353 0.0058924812 0.47960496
-0.10756333 0.006031774 0.48026925
-0.098079249 0.005771914 0.48084003
-0.088233694 0.0059067784 0.48085189
-0.078244962 0.0059248055 0.48222223
-0.068122193 0.0059309411 0.48303705
-0.057998646 0.0059463489 0.48417285
-0.049002804 0.0042076204 0.48678264
-0.041022979 0.0013835344 0.48600003
-0.1240578 0.015366733 0.47900003
-0.11803113 0.014831604 0.47924563
-0.10741846 0.015566858 0.48006761
-0.097844638 0.016185645 0.48132503
-0.08768636 0.01628897 0.48230955
-0.077825233 0.01611561 0.48268494
-0.067967996 0.016152825 0.4819383
-0.057974286 0.016219674 0.48397532
-0.050467409 0.017960466 0.48634484
-0.033402454 0.020124728 0.48633337
-0.027618112 0.019356361 0.48383334
-0.022047633 0.018275984 0.48657146
-0.12518787 0.021704989 0.47900003
-0.11577057 0.029992219 0.47900003
-0.10768358 0.02681944 0.47920591
-0.098287784 0.026284341 0.48008645
-0.088178575 0.026252883 0.48130125
-0.078027286 0.026462443 0.48156965
-0.068084642 0.026136668 0.4817273
-0.057866286 0.025878701 0.48306945
-0.047722522 0.025750183 0.48573688
-0.037815295 0.025655221 0.48685485
-0.028297307 0.024032753 0.48584852
-0.022264594 0.022527074 0.48700002
-0.11614726 0.031875677 0.47900003
-0.10799044 0.034859475 0.47932002
-0.099406376 0.033227094 0.48024002
-0.087103076 0.032812424 0.48052636
-0.078282654 0.033760507 0.47991669
-0.06793008 0.032451492 0.48100004
-0.057062328 0.03225036 0.48330772
-0.04856205 0.032167971 0.48627779
-0.02698205 0.034300439 0.48700002
-0.02234119 0.03432297 0.48700002
-0.11002319 0.045802478 0.47916669
-0.10767168 0.051086985 0.47900003
-0.11479117 0.090187646 0.47900003
-0.11162695 0.089509599 0.47900003
-0.11445215 0.091769755 0.47900003
0.055978946 0.18751639 0.48700002
0.057702377 0.18751639 0.48700002
-0.093998551 -0.1921076 0.48800004
-0.087997489 -0.19222315 0.48807147
-0.078043908 -0.19205686 0.4880667
-0.067766145 -0.19230103 0.48868892
-0.057464313 -0.19232394 0.4900755
-0.047816157 -0.19263217 0.49100003
-0.037982654 -0.19270512 0.49118522
-0.027549433 -0.19315521 0.49352461
-0.017795393 -0.19309409 0.49366075
-0.0078857616 -0.19291022 0.4931905
0.0020071967 -0.19322002 0.49398217
0.011929208 -0.19346949 0.49461907
0.021407034 -0.19374317 0.49583021
0.02761941 -0.19752663 0.49700001
0.045402981 -0.19205476 0.49700001
-0.094206877 -0.18545194 0.48800004
-0.087862544 -0.18440118 0.48878574
-0.078103945 -0.18413842 0.48844448
-0.067835666 -0.18441795 0.48918521
-0.057703968 -0.18420899 0.48970425
-0.047932368 -0.18426692 0.49059093
-0.037912793 -0.18400699 0.49101251
-0.027711216 -0.18391198 0.49208111
-0.017770527 -0.18411842 0.49301565
-0.0077743041 -0.18400025 0.49308112
0.0020066639 -0.18387625 0.49393058
0.011923881 -0.18403001 0.49434569
0.021734808 -0.18412659 0.49590772
0.028957352 -0.18216158 0.49688002
0.060763296 -0.17962581 0.49700001
-0.086092889 -0.17821513 0.48800004
-0.076359525 -0.17617999 0.48822585
-0.067583144 -0.17489006 0.48865628
-0.058498807 -0.17572369 0.48830956
-0.047745045 -0.17446697 0.48866668
-0.037959006 -0.17384043 0.4900685
-0.027964639 -0.17420417 0.49100003
-0.018038578 -0.17410967 0.49190414
-0.0079838084 -0.17406794 0.4928861
0.0020052183 -0.17379458 0.49342191
0.01192381 -0.17411123 0.49431947
0.021904383 -0.17465772 0.49587503
0.028948292 -0.17337225 0.49700001
0.061871883 -0.17670512 0.49700001
-0.084941581 -0.16324811 0.48800004
-0.05538898 -0.16180639 0.48893106
-0.048034143 -0.16412468 0.48918074
-0.037982199 -0.16398238 0.48984811
-0.027965007 -0.16427471 0.49046379
-0.018444866 -0.16440089 0.4919872
-0.0078834109 -0.16433443 0.49298614
0.0021305024 -0.1640261 0.49320292
0.01202844 -0.16411941 0.49453014
0.020265436 -0.16473074 0.49617779
0.03231987 -0.16342002 0.49700001
0.041990638 -0.16199216 0.49692857
0.047161795 -0.16098237 0.49700001
-0.063066684 -0.15265605 0.48800004
-0.05757945 -0.15422824 0.48956582
-0.047786165 -0.15430874 0.49068752
-0.03768884 -0.15393454 0.49033752
-0.028064182 -0.15394807 0.4900139
-0.018311158 -0.15413299 0.49197534
-0.0078757573 -0.15433013 0.49260497
0.00187634 -0.1542697 0.49352241
0.011825639 -0.15441726 0.49511433
0.022048399 -0.15392481 0.49579662
0.031575795 -0.1535774 0.49660608
0.042318847 -0.15365694 0.49681666
0.047831818 -0.15352835 0.49700001
-0.063450456 -0.14348395 0.48800004
-0.057792533 -0.14420505 0.48890004
-0.048174083 -0.14401923 0.48936251
-0.038099796 -0.14415894 0.49090669
-0.028224619 -0.14406839 0.49050748
-0.018279143 -0.14399664 0.49105558
-0.0077546458 -0.14412066 0.49195948
0.0020038504 -0.14402038 0.49312502
0.011911807 -0.14425506 0.49392596
0.021729672 -0.14429282 0.49475366
0.032035787 -0.14405756 0.49642858
0.042240571 -0.14402838 0.49610528
0.050217181 -0.14387594 0.49663639
-0.065076947 -0.13342032 0.48802862
-0.057606313 -0.13386105 0.4890385
-0.047916178 -0.13397272 0.48990667
-0.037983995 -0.13419363 0.49120989
-0.028122827 -0.13412705 0.49097225
-0.018282255 -0.13417673 0.49116051
-0.0079679191 -0.13431332 0.49208862
0.0020085108 -0.1343919 0.49407816
0.012022687 -0.13422182 0.49397299
0.021854436 -0.13398726 0.49473614
0.031734198 -0.13415298 0.49648684
0.042630792 -0.13421293 0.49636844
0.051061824 -0.13400261 0.49623531
-0.06616056 -0.12466265 0.48801854
-0.057818338 -0.12410472 0.48888734
-0.047993157 -0.12382184 0.4896912
-0.037923597 -0.12414398 0.49043056
-0.02810549 -0.1242037 0.4906719
-0.018238654 -0.12391271 0.49158752
-0.0078679342 -0.12396647 0.49202472
