# .PCD v0.7 - Point Cloud Data file format
VERSION 0.7
FIELDS x y z
SIZE 4 4 4
TYPE F F F
COUNT 1 1 1
WIDTH 1389
HEIGHT 1
VIEWPOINT 0 0 0 1 0 0 0
POINTS 1389
DATA ascii
-0.17827789 0.10889582 0.47000003
-0.17716904 0.10889582 0.47000003
-0.1760602 0.10889582 0.47000003
-0.17495136 0.10889582 0.47000003
-0.1738425 0.10889582 0.47000003
-0.17273365 0.10889582 0.47000003
-0.17162481 0.10889582 0.47000003
-0.17051597 0.10889582 0.47000003
-0.16940713 0.10889582 0.47000003
-0.16829829 0.10889582 0.47000003
-0.16718943 0.10889582 0.47000003
-0.16608059 0.10889582 0.47000003
-0.16532275 0.10912751 0.47100002
-0.16421154 0.10912751 0.47100002
-0.16310035 0.10912751 0.47100002
-0.16198914 0.10912751 0.47100002
-0.16087794 0.10912751 0.47100002
-0.15976673 0.10912751 0.47100002
-0.15865554 0.10912751 0.47100002
-0.15754433 0.10912751 0.47100002
-0.15643314 0.10912751 0.47100002
-0.15532193 0.10912751 0.47100002
-0.15421073 0.10912751 0.47100002
-0.15309952 0.10912751 0.47100002
-0.15198831 0.10912751 0.47100002
-0.15087712 0.10912751 0.47100002
-0.14976591 0.10912751 0.47100002
-0.14865471 0.10912751 0.47100002
-0.1475435 0.10912751 0.47100002
-0.14643231 0.10912751 0.47100002
-0.1453211 0.10912751 0.47100002
-0.14420991 0.10912751 0.47100002
-0.1430987 0.10912751 0.47100002
-0.1419875 0.10912751 0.47100002
-0.14087629 0.10912751 0.47100002
-0.13976508 0.10912751 0.47100002
-0.13894828 0.10935921 0.47200003
-0.13812673 0.1095909 0.47300002
-0.13701081 0.1095909 0.47300002
-0.13589489 0.1095909 0.47300002
-0.13506392 0.10982259 0.47400004
-0.13394564 0.10982259 0.47400004
-0.13282736 0.10982259 0.47400004
-0.13198695 0.11005428 0.47500002
-0.1308663 0.11005428 0.47500002
-0.12974566 0.11005428 0.47500002
-0.12862502 0.11005428 0.47500002
-0.12750438 0.11005428 0.47500002
-0.12664981 0.11028598 0.47600001
-0.12552682 0.11028598 0.47600001
-0.12440381 0.11028598 0.47600001
-0.12328082 0.11028598 0.47600001
-0.12215781 0.11028598 0.47600001
-0.12103482 0.11028598 0.47600001
-0.11991182 0.11028598 0.47600001
-0.11878882 0.11028598 0.47600001
-0.11766582 0.11028598 0.47600001
-0.11654282 0.11028598 0.47600001
-0.11541982 0.11028598 0.47600001
-0.11429682 0.11028598 0.47600001
-0.11293606 0.11005428 0.47500002
-0.075086668 0.091287136 0.39400002
-0.074157126 0.091287136 0.39400002
-0.073227584 0.091287136 0.39400002
-0.072298042 0.091287136 0.39400002
-0.071368501 0.091287136 0.39400002
-0.070438959 0.091287136 0.39400002
-0.069509424 0.091287136 0.39400002
-0.068579882 0.091287136 0.39400002
-0.06765034 0.091287136 0.39400002
-0.066720799 0.091287136 0.39400002
-0.065791257 0.091287136 0.39400002
-0.065026335 0.091518827 0.39500001
-0.064094439 0.091518827 0.39500001
-0.063162535 0.091518827 0.39500001
-0.062230635 0.091518827 0.39500001
-0.061298735 0.091518827 0.39500001
-0.060366835 0.091518827 0.39500001
-0.059434935 0.091518827 0.39500001
-0.058503035 0.091518827 0.39500001
-0.057571135 0.091518827 0.39500001
-0.056639235 0.091518827 0.39500001
-0.055707335 0.091518827 0.39500001
-0.054775432 0.091518827 0.39500001
-0.053843528 0.091518827 0.39500001
-0.052911628 0.091518827 0.39500001
-0.051979728 0.091518827 0.39500001
-0.051047824 0.091518827 0.39500001
-0.050242804 0.091750525 0.39600003
-0.049184028 0.091518827 0.39500001
-0.048374288 0.091750525 0.39600003
-0.04744003 0.091750525 0.39600003
-0.046505768 0.091750525 0.39600003
-0.045571506 0.091750525 0.39600003
-0.044637248 0.091750525 0.39600003
-0.043702986 0.091750525 0.39600003
-0.042768728 0.091750525 0.39600003
-0.041940108 0.091982216 0.39700001
-0.041003488 0.091982216 0.39700001
-0.040066872 0.091982216 0.39700001
-0.039130252 0.091982216 0.39700001
-0.038193632 0.091982216 0.39700001
-0.037257016 0.091982216 0.39700001
-0.036320396 0.091982216 0.39700001
-0.035383776 0.091982216 0.39700001
-0.03444716 0.091982216 0.39700001
-0.033594951 0.092213914 0.39800003
-0.032655973 0.092213914 0.39800003
-0.031716995 0.092213914 0.39800003
-0.030778015 0.092213914 0.39800003
-0.029839037 0.092213914 0.39800003
-0.028972672 0.092445597 0.39900002
-0.028031334 0.092445597 0.39900002
-0.027089994 0.092445597 0.39900002
-0.026148656 0.092445597 0.39900002
-0.02520732 0.092445597 0.39900002
-0.024265984 0.092445597 0.39900002
-0.023266189 0.092213914 0.39800003
-0.022327211 0.092213914 0.39800003
-0.02144197 0.092445597 0.39900002
-0.020500634 0.092445597 0.39900002
-0.019559296 0.092445597 0.39900002
-0.018617958 0.092445597 0.39900002
-0.017676622 0.092445597 0.39900002
-0.016735284 0.092445597 0.39900002
-0.015793948 0.092445597 0.39900002
-0.014889834 0.092677288 0.40000001
-0.013946137 0.092677288 0.40000001
-0.013002439 0.092677288 0.40000001
-0.012058743 0.092677288 0.40000001
-0.011087259 0.092445597 0.39900002
-0.010145921 0.092445597 0.39900002
-0.0092045842 0.092445597 0.39900002
-0.0082632471 0.092445597 0.39900002
-0.0073219095 0.092445597 0.39900002
-0.0063805715 0.092445597 0.39900002
-0.0054392344 0.092445597 0.39900002
-0.0044978969 0.092445597 0.39900002
-0.0035565596 0.092445597 0.39900002
-0.002615222 0.092445597 0.39900002
-0.0016738846 0.092445597 0.39900002
-0.00073254714 0.092445597 0.39900002
0.00020931358 0.092677288 0.40000001
0.0011530103 0.092677288 0.40000001
0.0020967068 0.092677288 0.40000001
0.0030404036 0.092677288 0.40000001
0.0039841002 0.092677288 0.40000001
0.0049277968 0.092677288 0.40000001
0.0058714934 0.092677288 0.40000001
0.00681519 0.092677288 0.40000001
0.007758887 0.092677288 0.40000001
0.0087025836 0.092677288 0.40000001
0.0096462807 0.092677288 0.40000001
0.010589977 0.092677288 0.40000001
0.011533673 0.092677288 0.40000001
0.012477371 0.092677288 0.40000001
0.013421066 0.092677288 0.40000001
0.014364763 0.092677288 0.40000001
0.015308461 0.092677288 0.40000001
0.016292788 0.092908986 0.40100002
0.017238844 0.092908986 0.40100002
0.0181849 0.092908986 0.40100002
0.019130956 0.092908986 0.40100002
0.020077012 0.092908986 0.40100002
0.021075493 0.093140677 0.40200001
0.022023909 0.093140677 0.40200001
0.022972323 0.093140677 0.40200001
0.023920739 0.093140677 0.40200001
0.024931019 0.093372375 0.40300003
0.025881791 0.093372375 0.40300003
0.026832566 0.093372375 0.40300003
0.037325341 0.11376138 0.49100003
0.038483728 0.11376138 0.49100003
0.039561376 0.11352968 0.49000001
0.040717404 0.11352968 0.49000001
0.041873433 0.11352968 0.49000001
0.043029461 0.11352968 0.49000001
0.044275664 0.11376138 0.49100003
0.045434054 0.11376138 0.49100003
0.04659244 0.11376138 0.49100003
0.047653574 0.11352968 0.49000001
0.048909217 0.11376138 0.49100003
0.049965631 0.11352968 0.49000001
0.05112166 0.11352968 0.49000001
0.052277688 0.11352968 0.49000001
0.053433716 0.11352968 0.49000001
0.054589745 0.11352968 0.49000001
0.055745773 0.11352968 0.49000001
0.056901801 0.11352968 0.49000001
0.05817632 0.11376138 0.49100003
0.059334707 0.11376138 0.49100003
0.060493093 0.11376138 0.49100003
0.061651479 0.11376138 0.49100003
0.062809862 0.11376138 0.49100003
0.06409853 0.11399307 0.49200001
0.065259278 0.11399307 0.49200001
-0.33147994 0.10789819 0.46100003
-0.32967564 0.10766414 0.46000001
-0.32930472 0.10789819 0.46100003
-0.32821712 0.10789819 0.46100003
-0.32641989 0.10766414 0.46000001
-0.32533464 0.10766414 0.46000001
-0.32424939 0.10766414 0.46000001
-0.32316414 0.10766414 0.46000001
-0.32207888 0.10766414 0.46000001
-0.32099363 0.10766414 0.46000001
-0.31990838 0.10766414 0.46000001
-0.31882313 0.10766414 0.46000001
-0.31773788 0.10766414 0.46000001
-0.31665266 0.10766414 0.46000001
-0.31556737 0.10766414 0.46000001
-0.31448215 0.10766414 0.46000001
-0.31339687 0.10766414 0.46000001
-0.31231165 0.10766414 0.46000001
-0.31122637 0.10766414 0.46000001
-0.31014115 0.10766414 0.46000001
-0.30905586 0.10766414 0.46000001
-0.30864015 0.10789819 0.46100003
-0.30755252 0.10789819 0.46100003
-0.30646491 0.10789819 0.46100003
-0.3053773 0.10789819 0.46100003
-0.3042897 0.10789819 0.46100003
-0.30320209 0.10789819 0.46100003
-0.30211449 0.10789819 0.46100003
-0.30102685 0.10789819 0.46100003
-0.29993924 0.10789819 0.46100003
-0.29885164 0.10789819 0.46100003
-0.29840991 0.10813224 0.46200001
-0.29731995 0.10813224 0.46200001
-0.29622999 0.10813224 0.46200001
-0.29514003 0.10813224 0.46200001
-0.29468653 0.1083663 0.46300003
-0.29359421 0.1083663 0.46300003
-0.29250187 0.1083663 0.46300003
-0.29140955 0.1083663 0.46300003
-0.29031721 0.1083663 0.46300003
-0.28922489 0.1083663 0.46300003
-0.28875485 0.10860035 0.46400002
-0.28766018 0.10860035 0.46400002
-0.28656548 0.10860035 0.46400002
-0.28547081 0.10860035 0.46400002
-0.28437611 0.10860035 0.46400002
-0.28328145 0.10860035 0.46400002
-0.28218672 0.10860035 0.46400002
-0.28109205 0.10860035 0.46400002
-0.27999735 0.10860035 0.46400002
-0.27890268 0.10860035 0.46400002
-0.27720925 0.1083663 0.46300003
-0.27671331 0.10860035 0.46400002
-0.27561861 0.10860035 0.46400002
-0.27452391 0.10860035 0.46400002
-0.27342921 0.10860035 0.46400002
-0.27174762 0.1083663 0.46300003
-0.27065527 0.1083663 0.46300003
-0.26956296 0.1083663 0.46300003
-0.26847064 0.1083663 0.46300003
-0.26737833 0.1083663 0.46300003
-0.26628599 0.1083663 0.46300003
-0.26519367 0.1083663 0.46300003
-0.26410133 0.1083663 0.46300003
-0.26300901 0.1083663 0.46300003
-0.26248235 0.10860035 0.46400002
-0.26138768 0.10860035 0.46400002
-0.25973201 0.1083663 0.46300003
-0.25863969 0.1083663 0.46300003
-0.25754735 0.1083663 0.46300003
-0.25645503 0.1083663 0.46300003
-0.25536269 0.1083663 0.46300003
-0.25427037 0.1083663 0.46300003
-0.25317803 0.1083663 0.46300003
-0.25208572 0.1083663 0.46300003
-0.25153548 0.10860035 0.46400002
-0.25044081 0.10860035 0.46400002
-0.24934609 0.10860035 0.46400002
-0.24878645 0.1088344 0.46500003
-0.24768938 0.1088344 0.46500003
-0.24659236 0.1088344 0.46500003
-0.24549529 0.1088344 0.46500003
-0.24439827 0.1088344 0.46500003
-0.2433012 0.1088344 0.46500003
-0.24220416 0.1088344 0.46500003
-0.24110711 0.1088344 0.46500003
-0.24001007 0.1088344 0.46500003
-0.23942679 0.10906845 0.46600002
-0.2383274 0.10906845 0.46600002
-0.23722798 0.10906845 0.46600002
-0.23612858 0.10906845 0.46600002
-0.23502918 0.10906845 0.46600002
-0.23443176 0.10930251 0.46700001
-0.23332998 0.10930251 0.46700001
-0.23222822 0.10930251 0.46700001
-0.23112646 0.10930251 0.46700001
-0.2300247 0.10930251 0.46700001
-0.22892292 0.10930251 0.46700001
-0.22782116 0.10930251 0.46700001
-0.22671939 0.10930251 0.46700001
-0.22561763 0.10930251 0.46700001
-0.22451586 0.10930251 0.46700001
-0.22341409 0.10930251 0.46700001
-0.22231233 0.10930251 0.46700001
-0.22121057 0.10930251 0.46700001
-0.22010879 0.10930251 0.46700001
-0.21900703 0.10930251 0.46700001
-0.21790527 0.10930251 0.46700001
-0.21726775 0.10953656 0.46800002
-0.21616364 0.10953656 0.46800002
-0.2150595 0.10953656 0.46800002
-0.21395539 0.10953656 0.46800002
-0.21285126 0.10953656 0.46800002
-0.21174712 0.10953656 0.46800002
-0.21064301 0.10953656 0.46800002
-0.20953888 0.10953656 0.46800002
-0.20843476 0.10953656 0.46800002
-0.20733063 0.10953656 0.46800002
-0.20622651 0.10953656 0.46800002
-0.20512238 0.10953656 0.46800002
-0.20401825 0.10953656 0.46800002
-0.20291413 0.10953656 0.46800002
-0.20181 0.10953656 0.46800002
-0.20070589 0.10953656 0.46800002
-0.19960175 0.10953656 0.46800002
-0.19849764 0.10953656 0.46800002
-0.19739351 0.10953656 0.46800002
-0.1967088 0.10977061 0.46900001
-0.19560231 0.10977061 0.46900001
-0.19449583 0.10977061 0.46900001
-0.19338934 0.10977061 0.46900001
-0.19228286 0.10977061 0.46900001
-0.19117637 0.10977061 0.46900001
-0.1900699 0.10977061 0.46900001
-0.18896341 0.10977061 0.46900001
-0.18785693 0.10977061 0.46900001
-0.18714863 0.11000466 0.47000003
-0.18603979 0.11000466 0.47000003
-0.18493095 0.11000466 0.47000003
-0.18382211 0.11000466 0.47000003
-0.18271326 0.11000466 0.47000003
-0.18160442 0.11000466 0.47000003
-0.18049558 0.11000466 0.47000003
-0.17938673 0.11000466 0.47000003
-0.17827789 0.11000466 0.47000003
-0.17716904 0.11000466 0.47000003
-0.1760602 0.11000466 0.47000003
-0.17495136 0.11000466 0.47000003
-0.1738425 0.11000466 0.47000003
-0.17273365 0.11000466 0.47000003
-0.17162481 0.11000466 0.47000003
-0.17051597 0.11000466 0.47000003
-0.16940713 0.11000466 0.47000003
-0.16829829 0.11000466 0.47000003
-0.16718943 0.11000466 0.47000003
-0.16608059 0.11000466 0.47000003
-0.16497175 0.11000466 0.47000003
-0.16386291 0.11000466 0.47000003
-0.16275406 0.11000466 0.47000003
-0.16198914 0.11023872 0.47100002
-0.16087794 0.11023872 0.47100002
-0.15976673 0.11023872 0.47100002
-0.15865554 0.11023872 0.47100002
-0.15720984 0.11000466 0.47000003
-0.15643314 0.11023872 0.47100002
-0.15532193 0.11023872 0.47100002
-0.15421073 0.11023872 0.47100002
-0.15309952 0.11023872 0.47100002
-0.15198831 0.11023872 0.47100002
-0.15087712 0.11023872 0.47100002
-0.14976591 0.11023872 0.47100002
-0.14865471 0.11023872 0.47100002
-0.1475435 0.11023872 0.47100002
-0.14643231 0.11023872 0.47100002
-0.1453211 0.11023872 0.47100002
-0.14420991 0.11023872 0.47100002
-0.1430987 0.11023872 0.47100002
-0.1419875 0.11023872 0.47100002
-0.14087629 0.11023872 0.47100002
-0.13976508 0.11023872 0.47100002
-0.13894828 0.11047277 0.47200003
-0.13783471 0.11047277 0.47200003
-0.13701081 0.11070682 0.47300002
-0.13589489 0.11070682 0.47300002
-0.13477896 0.11070682 0.47300002
-0.13394564 0.11094087 0.47400004
-0.13282736 0.11094087 0.47400004
-0.13198695 0.11117493 0.47500002
-0.1308663 0.11117493 0.47500002
-0.12974566 0.11117493 0.47500002
-0.12862502 0.11117493 0.47500002
-0.12750438 0.11117493 0.47500002
-0.12664981 0.11140898 0.47600001
-0.12552682 0.11140898 0.47600001
-0.12440381 0.11140898 0.47600001
-0.12328082 0.11140898 0.47600001
-0.12215781 0.11140898 0.47600001
-0.12103482 0.11140898 0.47600001
-0.11991182 0.11140898 0.47600001
-0.11878882 0.11140898 0.47600001
-0.11766582 0.11140898 0.47600001
-0.11629798 0.11117493 0.47500002
-0.11517735 0.11117493 0.47500002
-0.11405671 0.11117493 0.47500002
-0.11293606 0.11117493 0.47500002
-0.11181542 0.11117493 0.47500002
-0.074157126 0.092216678 0.39400002
-0.073227584 0.092216678 0.39400002
-0.072298042 0.092216678 0.39400002
-0.071368501 0.092216678 0.39400002
-0.070438959 0.092216678 0.39400002
-0.069509424 0.092216678 0.39400002
-0.068579882 0.092216678 0.39400002
-0.06765034 0.092216678 0.39400002
-0.066720799 0.092216678 0.39400002
-0.065791257 0.092216678 0.39400002
-0.064861715 0.092216678 0.39400002
-0.064094439 0.092450723 0.39500001
-0.063162535 0.092450723 0.39500001
-0.062230635 0.092450723 0.39500001
-0.061298735 0.092450723 0.39500001
-0.060366835 0.092450723 0.39500001
-0.059434935 0.092450723 0.39500001
-0.058503035 0.092450723 0.39500001
-0.057571135 0.092450723 0.39500001
-0.056639235 0.092450723 0.39500001
-0.055707335 0.092450723 0.39500001
-0.054775432 0.092450723 0.39500001
-0.053843528 0.092450723 0.39500001
-0.052911628 0.092450723 0.39500001
-0.051979728 0.092450723 0.39500001
-0.051047824 0.092450723 0.39500001
-0.050242804 0.092684783 0.39600003
-0.049184028 0.092450723 0.39500001
-0.048374288 0.092684783 0.39600003
-0.04744003 0.092684783 0.39600003
-0.046505768 0.092684783 0.39600003
-0.045571506 0.092684783 0.39600003
-0.044637248 0.092684783 0.39600003
-0.043702986 0.092684783 0.39600003
-0.042768728 0.092684783 0.39600003
-0.041940108 0.092918828 0.39700001
-0.041003488 0.092918828 0.39700001
-0.040066872 0.092918828 0.39700001
-0.039130252 0.092918828 0.39700001
-0.038193632 0.092918828 0.39700001
-0.037257016 0.092918828 0.39700001
-0.036320396 0.092918828 0.39700001
-0.035383776 0.092918828 0.39700001
-0.03444716 0.092918828 0.39700001
-0.033594951 0.093152888 0.39800003
-0.032655973 0.093152888 0.39800003
-0.031716995 0.093152888 0.39800003
-0.030778015 0.093152888 0.39800003
-0.029839037 0.093152888 0.39800003
-0.028972672 0.093386941 0.39900002
-0.028031334 0.093386941 0.39900002
-0.027089994 0.093386941 0.39900002
-0.026148656 0.093386941 0.39900002
-0.02520732 0.093386941 0.39900002
-0.024265984 0.093386941 0.39900002
-0.023266189 0.093152888 0.39800003
-0.022327211 0.093152888 0.39800003
-0.02144197 0.093386941 0.39900002
-0.020500634 0.093386941 0.39900002
-0.019559296 0.093386941 0.39900002
-0.018617958 0.093386941 0.39900002
-0.017676622 0.093386941 0.39900002
-0.016735284 0.093386941 0.39900002
-0.015793948 0.093386941 0.39900002
-0.014852609 0.093386941 0.39900002
-0.013911272 0.093386941 0.39900002
-0.012969933 0.093386941 0.39900002
-0.012028596 0.093386941 0.39900002
-0.011087259 0.093386941 0.39900002
-0.010145921 0.093386941 0.39900002
-0.0092045842 0.093386941 0.39900002
-0.0082632471 0.093386941 0.39900002
-0.0073219095 0.093386941 0.39900002
-0.0063805715 0.093386941 0.39900002
-0.0054392344 0.093386941 0.39900002
-0.0044978969 0.093386941 0.39900002
-0.0035565596 0.093386941 0.39900002
-0.002615222 0.093386941 0.39900002
-0.0016738846 0.093386941 0.39900002
-0.00073254714 0.093386941 0.39900002
0.00020931358 0.093620986 0.40000001
0.0011530103 0.093620986 0.40000001
0.0020967068 0.093620986 0.40000001
0.0030404036 0.093620986 0.40000001
0.0039841002 0.093620986 0.40000001
0.0049277968 0.093620986 0.40000001
0.0058714934 0.093620986 0.40000001
0.00681519 0.093620986 0.40000001
0.007758887 0.093620986 0.40000001
0.0087025836 0.093620986 0.40000001
0.0096462807 0.093620986 0.40000001
0.010589977 0.093620986 0.40000001
0.011533673 0.093620986 0.40000001
0.012477371 0.093620986 0.40000001
0.013421066 0.093620986 0.40000001
0.014364763 0.093620986 0.40000001
0.015308461 0.093620986 0.40000001
0.016292788 0.093855046 0.40100002
0.017238844 0.093855046 0.40100002
0.0181849 0.093855046 0.40100002
0.019130956 0.093855046 0.40100002
0.020077012 0.093855046 0.40100002
0.021075493 0.094089091 0.40200001
0.022023909 0.094089091 0.40200001
0.022972323 0.094089091 0.40200001
0.023920739 0.094089091 0.40200001
0.024869155 0.094089091 0.40200001
0.025817567 0.094089091 0.40200001
0.026832566 0.094323151 0.40300003
0.037325341 0.11491977 0.49100003
0.038483728 0.11491977 0.49100003
0.039642114 0.11491977 0.49100003
0.040800504 0.11491977 0.49100003
0.041958891 0.11491977 0.49100003
0.043117277 0.11491977 0.49100003
0.044275664 0.11491977 0.49100003
0.045434054 0.11491977 0.49100003
0.04659244 0.11491977 0.49100003
0.047750827 0.11491977 0.49100003
0.048909217 0.11491977 0.49100003
0.050067604 0.11491977 0.49100003
0.05112166 0.11468571 0.49000001
0.052277688 0.11468571 0.49000001
0.053433716 0.11468571 0.49000001
0.054589745 0.11468571 0.49000001
0.055745773 0.11468571 0.49000001
0.05701793 0.11491977 0.49100003
0.05817632 0.11491977 0.49100003
0.059334707 0.11491977 0.49100003
0.060493093 0.11491977 0.49100003
0.06177704 0.11515382 0.49200001
0.062937789 0.11515382 0.49200001
0.06409853 0.11515382 0.49200001
0.065391921 0.11538787 0.49300003
-0.3307609 0.10874939 0.46000001
-0.32967564 0.10874939 0.46000001
-0.32859039 0.10874939 0.46000001
-0.32750514 0.10874939 0.46000001
-0.32641989 0.10874939 0.46000001
-0.32533464 0.10874939 0.46000001
-0.32424939 0.10874939 0.46000001
-0.32316414 0.10874939 0.46000001
-0.32207888 0.10874939 0.46000001
-0.32099363 0.10874939 0.46000001
-0.31990838 0.10874939 0.46000001
-0.31882313 0.10874939 0.46000001
-0.31773788 0.10874939 0.46000001
-0.31665266 0.10874939 0.46000001
-0.31556737 0.10874939 0.46000001
-0.31448215 0.10874939 0.46000001
-0.31339687 0.10874939 0.46000001
-0.31231165 0.10874939 0.46000001
-0.31122637 0.10874939 0.46000001
-0.31014115 0.10874939 0.46000001
-0.30905586 0.10874939 0.46000001
-0.30864015 0.1089858 0.46100003
-0.30755252 0.1089858 0.46100003
-0.30646491 0.1089858 0.46100003
-0.3053773 0.1089858 0.46100003
-0.3042897 0.1089858 0.46100003
-0.30320209 0.1089858 0.46100003
-0.30211449 0.1089858 0.46100003
-0.30102685 0.1089858 0.46100003
-0.29993924 0.1089858 0.46100003
-0.2994999 0.10922221 0.46200001
-0.29840991 0.10922221 0.46200001
-0.29731995 0.10922221 0.46200001
-0.29622999 0.10922221 0.46200001
-0.29514003 0.10922221 0.46200001
-0.29468653 0.10945863 0.46300003
-0.29359421 0.10945863 0.46300003
-0.29250187 0.10945863 0.46300003
-0.29140955 0.10945863 0.46300003
-0.29031721 0.10945863 0.46300003
-0.28922489 0.10945863 0.46300003
-0.28875485 0.10969503 0.46400002
-0.28704023 0.10945863 0.46300003
-0.28656548 0.10969503 0.46400002
-0.28547081 0.10969503 0.46400002
-0.28437611 0.10969503 0.46400002
-0.28328145 0.10969503 0.46400002
-0.28218672 0.10969503 0.46400002
-0.28109205 0.10969503 0.46400002
-0.27999735 0.10969503 0.46400002
-0.27890268 0.10969503 0.46400002
-0.27780798 0.10969503 0.46400002
-0.27671331 0.10969503 0.46400002
-0.27561861 0.10969503 0.46400002
-0.27452391 0.10969503 0.46400002
-0.27342921 0.10969503 0.46400002
-0.27174762 0.10945863 0.46300003
-0.27065527 0.10945863 0.46300003
-0.26956296 0.10945863 0.46300003
-0.26847064 0.10945863 0.46300003
-0.26737833 0.10945863 0.46300003
-0.26628599 0.10945863 0.46300003
-0.26519367 0.10945863 0.46300003
-0.26410133 0.10945863 0.46300003
-0.26300901 0.10945863 0.46300003
-0.26191667 0.10945863 0.46300003
-0.26082435 0.10945863 0.46300003
-0.25973201 0.10945863 0.46300003
-0.25863969 0.10945863 0.46300003
-0.25754735 0.10945863 0.46300003
-0.25645503 0.10945863 0.46300003
-0.25536269 0.10945863 0.46300003
-0.25427037 0.10945863 0.46300003
-0.25317803 0.10945863 0.46300003
-0.25208572 0.10945863 0.46300003
-0.25153548 0.10969503 0.46400002
-0.25044081 0.10969503 0.46400002
-0.24934609 0.10969503 0.46400002
-0.24878645 0.10993145 0.46500003
-0.24768938 0.10993145 0.46500003
-0.24659236 0.10993145 0.46500003
-0.24549529 0.10993145 0.46500003
-0.24439827 0.10993145 0.46500003
-0.2433012 0.10993145 0.46500003
-0.24220416 0.10993145 0.46500003
-0.24110711 0.10993145 0.46500003
-0.24001007 0.10993145 0.46500003
-0.23891301 0.10993145 0.46500003
-0.2383274 0.11016786 0.46600002
-0.23722798 0.11016786 0.46600002
-0.23612858 0.11016786 0.46600002
-0.23502918 0.11016786 0.46600002
-0.23392978 0.11016786 0.46600002
-0.23283036 0.11016786 0.46600002
-0.23173095 0.11016786 0.46600002
-0.23063155 0.11016786 0.46600002
-0.2300247 0.11040427 0.46700001
-0.22892292 0.11040427 0.46700001
-0.22782116 0.11040427 0.46700001
-0.22671939 0.11040427 0.46700001
-0.22561763 0.11040427 0.46700001
-0.22451586 0.11040427 0.46700001
-0.22341409 0.11040427 0.46700001
-0.22231233 0.11040427 0.46700001
-0.22121057 0.11040427 0.46700001
-0.22010879 0.11040427 0.46700001
-0.21900703 0.11040427 0.46700001
-0.21790527 0.11040427 0.46700001
-0.21726775 0.11064068 0.46800002
-0.21616364 0.11064068 0.46800002
-0.2150595 0.11064068 0.46800002
-0.21395539 0.11064068 0.46800002
-0.21285126 0.11064068 0.46800002
-0.21174712 0.11064068 0.46800002
-0.21064301 0.11064068 0.46800002
-0.20953888 0.11064068 0.46800002
-0.20843476 0.11064068 0.46800002
-0.20733063 0.11064068 0.46800002
-0.20622651 0.11064068 0.46800002
-0.20512238 0.11064068 0.46800002
-0.20401825 0.11064068 0.46800002
-0.20291413 0.11064068 0.46800002
-0.20181 0.11064068 0.46800002
-0.20070589 0.11064068 0.46800002
-0.19960175 0.11064068 0.46800002
-0.19849764 0.11064068 0.46800002
-0.19739351 0.11064068 0.46800002
-0.1967088 0.11087709 0.46900001
-0.19560231 0.11087709 0.46900001
-0.19449583 0.11087709 0.46900001
-0.19338934 0.11087709 0.46900001
-0.19228286 0.11087709 0.46900001
-0.19117637 0.11087709 0.46900001
-0.1900699 0.11087709 0.46900001
-0.18896341 0.11087709 0.46900001
-0.18785693 0.11087709 0.46900001
-0.18675044 0.11087709 0.46900001
-0.18564396 0.11087709 0.46900001
-0.18453747 0.11087709 0.46900001
-0.18382211 0.11111351 0.47000003
-0.18271326 0.11111351 0.47000003
-0.18160442 0.11111351 0.47000003
-0.18049558 0.11111351 0.47000003
-0.17938673 0.11111351 0.47000003
-0.17827789 0.11111351 0.47000003
-0.17716904 0.11111351 0.47000003
-0.1760602 0.11111351 0.47000003
-0.17495136 0.11111351 0.47000003
-0.1738425 0.11111351 0.47000003
-0.17273365 0.11111351 0.47000003
-0.17162481 0.11111351 0.47000003
-0.17051597 0.11111351 0.47000003
-0.16940713 0.11111351 0.47000003
-0.16829829 0.11111351 0.47000003
-0.16718943 0.11111351 0.47000003
-0.16608059 0.11111351 0.47000003
-0.16497175 0.11111351 0.47000003
-0.16386291 0.11111351 0.47000003
-0.16275406 0.11111351 0.47000003
-0.16164522 0.11111351 0.47000003
-0.16053638 0.11111351 0.47000003
-0.15942754 0.11111351 0.47000003
-0.1583187 0.11111351 0.47000003
-0.15754433 0.11134992 0.47100002
-0.156101 0.11111351 0.47000003
-0.15532193 0.11134992 0.47100002
-0.15421073 0.11134992 0.47100002
-0.15309952 0.11134992 0.47100002
-0.15198831 0.11134992 0.47100002
-0.15087712 0.11134992 0.47100002
-0.14976591 0.11134992 0.47100002
-0.14865471 0.11134992 0.47100002
-0.1475435 0.11134992 0.47100002
-0.14643231 0.11134992 0.47100002
-0.14501257 0.11111351 0.47000003
-0.14390373 0.11111351 0.47000003
-0.1430987 0.11134992 0.47100002
-0.1419875 0.11134992 0.47100002
-0.14087629 0.11134992 0.47100002
-0.13976508 0.11134992 0.47100002
-0.13894828 0.11158633 0.47200003
-0.13783471 0.11158633 0.47200003
-0.13701081 0.11182274 0.47300002
-0.13589489 0.11182274 0.47300002
-0.13506392 0.11205915 0.47400004
-0.13394564 0.11205915 0.47400004
-0.13282736 0.11205915 0.47400004
-0.13170907 0.11205915 0.47400004
-0.1308663 0.11229557 0.47500002
-0.12974566 0.11229557 0.47500002
-0.12862502 0.11229557 0.47500002
-0.12777281 0.11253197 0.47600001
-0.12664981 0.11253197 0.47600001
-0.12552682 0.11253197 0.47600001
-0.12440381 0.11253197 0.47600001
-0.12328082 0.11253197 0.47600001
-0.12190118 0.11229557 0.47500002
-0.12078054 0.11229557 0.47500002
-0.1196599 0.11229557 0.47500002
-0.11853927 0.11229557 0.47500002
-0.11741862 0.11229557 0.47500002
-0.11629798 0.11229557 0.47500002
-0.11517735 0.11229557 0.47500002
-0.11405671 0.11229557 0.47500002
-0.11293606 0.11229557 0.47500002
-0.11181542 0.11229557 0.47500002
-0.11069479 0.11229557 0.47500002
-0.10957414 0.11229557 0.47500002
-0.1084535 0.11229557 0.47500002
-0.10733286 0.11229557 0.47500002
-0.072298042 0.09314622 0.39400002
-0.071368501 0.09314622 0.39400002
-0.070438959 0.09314622 0.39400002
-0.069509424 0.09314622 0.39400002
-0.068579882 0.09314622 0.39400002
-0.06765034 0.09314622 0.39400002
-0.066720799 0.09314622 0.39400002
-0.065791257 0.09314622 0.39400002
-0.064861715 0.09314622 0.39400002
-0.063932173 0.09314622 0.39400002
-0.063162535 0.093382627 0.39500001
-0.062230635 0.093382627 0.39500001
-0.061298735 0.093382627 0.39500001
-0.060366835 0.093382627 0.39500001
-0.059434935 0.093382627 0.39500001
-0.058503035 0.093382627 0.39500001
-0.057571135 0.093382627 0.39500001
-0.056639235 0.093382627 0.39500001
-0.055707335 0.093382627 0.39500001
-0.054775432 0.093382627 0.39500001
-0.053843528 0.093382627 0.39500001
-0.052911628 0.093382627 0.39500001
-0.051979728 0.093382627 0.39500001
-0.051047824 0.093382627 0.39500001
-0.050242804 0.093619041 0.39600003
-0.049184028 0.093382627 0.39500001
-0.048374288 0.093619041 0.39600003
-0.04744003 0.093619041 0.39600003
-0.046505768 0.093619041 0.39600003
-0.045571506 0.093619041 0.39600003
-0.044637248 0.093619041 0.39600003
-0.043702986 0.093619041 0.39600003
-0.042768728 0.093619041 0.39600003
-0.041940108 0.093855448 0.39700001
-0.041003488 0.093855448 0.39700001
-0.040066872 0.093855448 0.39700001
-0.039130252 0.093855448 0.39700001
-0.038193632 0.093855448 0.39700001
-0.037257016 0.093855448 0.39700001
-0.036320396 0.093855448 0.39700001
-0.035383776 0.093855448 0.39700001
-0.034533929 0.09409187 0.39800003
-0.033594951 0.09409187 0.39800003
-0.032655973 0.09409187 0.39800003
-0.031716995 0.09409187 0.39800003
-0.030778015 0.09409187 0.39800003
-0.029914008 0.094328277 0.39900002
-0.028972672 0.094328277 0.39900002
-0.028031334 0.094328277 0.39900002
-0.027089994 0.094328277 0.39900002
-0.026148656 0.094328277 0.39900002
-0.02520732 0.094328277 0.39900002
-0.024265984 0.094328277 0.39900002
-0.023266189 0.09409187 0.39800003
-0.022327211 0.09409187 0.39800003
-0.02144197 0.094328277 0.39900002
-0.020500634 0.094328277 0.39900002
-0.019559296 0.094328277 0.39900002
-0.018617958 0.094328277 0.39900002
-0.017676622 0.094328277 0.39900002
-0.016735284 0.094328277 0.39900002
-0.015793948 0.094328277 0.39900002
-0.014852609 0.094328277 0.39900002
-0.013911272 0.094328277 0.39900002
-0.012969933 0.094328277 0.39900002
-0.012028596 0.094328277 0.39900002
-0.011087259 0.094328277 0.39900002
-0.010145921 0.094328277 0.39900002
-0.0092045842 0.094328277 0.39900002
-0.0082632471 0.094328277 0.39900002
-0.0073219095 0.094328277 0.39900002
-0.0063805715 0.094328277 0.39900002
-0.0054392344 0.094328277 0.39900002
-0.0044978969 0.094328277 0.39900002
-0.0035565596 0.094328277 0.39900002
-0.002615222 0.094328277 0.39900002
-0.0016738846 0.094328277 0.39900002
-0.00073254714 0.094328277 0.39900002
0.00020931358 0.094564684 0.40000001
0.0011530103 0.094564684 0.40000001
0.0020967068 0.094564684 0.40000001
0.0030404036 0.094564684 0.40000001
0.0039841002 0.094564684 0.40000001
0.0049277968 0.094564684 0.40000001
0.0058714934 0.094564684 0.40000001
0.00681519 0.094564684 0.40000001
0.007758887 0.094564684 0.40000001
0.0087025836 0.094564684 0.40000001
0.0096462807 0.094564684 0.40000001
0.010589977 0.094564684 0.40000001
0.011533673 0.094564684 0.40000001
0.012477371 0.094564684 0.40000001
0.013421066 0.094564684 0.40000001
0.014364763 0.094564684 0.40000001
0.015308461 0.094564684 0.40000001
0.016292788 0.094801098 0.40100002
0.017238844 0.094801098 0.40100002
0.0181849 0.094801098 0.40100002
0.019130956 0.094801098 0.40100002
0.020077012 0.094801098 0.40100002
0.021023067 0.094801098 0.40100002
0.021969123 0.094801098 0.40100002
0.022972323 0.095037505 0.40200001
0.023920739 0.095037505 0.40200001
0.024869155 0.095037505 0.40200001
0.025817567 0.095037505 0.40200001
0.026765984 0.095037505 0.40200001
0.036166951 0.11607815 0.49100003
0.037325341 0.11607815 0.49100003
0.038483728 0.11607815 0.49100003
0.039642114 0.11607815 0.49100003
0.040800504 0.11607815 0.49100003
0.041958891 0.11607815 0.49100003
0.043117277 0.11607815 0.49100003
0.044275664 0.11607815 0.49100003
0.045434054 0.11607815 0.49100003
0.04659244 0.11607815 0.49100003
0.047750827 0.11607815 0.49100003
0.048909217 0.11607815 0.49100003
0.050067604 0.11607815 0.49100003
0.05122599 0.11607815 0.49100003
0.052277688 0.11584174 0.49000001
0.053433716 0.11584174 0.49000001
0.054589745 0.11584174 0.49000001
0.055745773 0.11584174 0.49000001
0.05701793 0.11607815 0.49100003
0.05817632 0.11607815 0.49100003
0.059334707 0.11607815 0.49100003
0.060493093 0.11607815 0.49100003
0.061651479 0.11607815 0.49100003
0.062937789 0.11631456 0.49200001
0.06409853 0.11631456 0.49200001
0.065259278 0.11631456 0.49200001
-0.3307609 0.10983464 0.46000001
-0.32967564 0.10983464 0.46000001
-0.32859039 0.10983464 0.46000001
-0.32750514 0.10983464 0.46000001
-0.32641989 0.10983464 0.46000001
-0.32533464 0.10983464 0.46000001
-0.32424939 0.10983464 0.46000001
-0.32316414 0.10983464 0.46000001
-0.32207888 0.10983464 0.46000001
-0.32099363 0.10983464 0.46000001
-0.31990838 0.10983464 0.46000001
-0.31882313 0.10983464 0.46000001
-0.31773788 0.10983464 0.46000001
-0.31665266 0.10983464 0.46000001
-0.31556737 0.10983464 0.46000001
-0.31448215 0.10983464 0.46000001
-0.31339687 0.10983464 0.46000001
-0.31231165 0.10983464 0.46000001
-0.31122637 0.10983464 0.46000001
-0.31014115 0.10983464 0.46000001
-0.30905586 0.10983464 0.46000001
-0.30864015 0.11007341 0.46100003
-0.30755252 0.11007341 0.46100003
-0.30646491 0.11007341 0.46100003
-0.3053773 0.11007341 0.46100003
-0.3042897 0.11007341 0.46100003
-0.30320209 0.11007341 0.46100003
-0.30211449 0.11007341 0.46100003
-0.30102685 0.11007341 0.46100003
-0.29993924 0.11007341 0.46100003
-0.2994999 0.11031218 0.46200001
-0.29840991 0.11031218 0.46200001
-0.29731995 0.11031218 0.46200001
-0.29622999 0.11031218 0.46200001
-0.29514003 0.11031218 0.46200001
-0.29405004 0.11031218 0.46200001
-0.29359421 0.11055095 0.46300003
-0.29250187 0.11055095 0.46300003
-0.29140955 0.11055095 0.46300003
-0.29031721 0.11055095 0.46300003
-0.28922489 0.11055095 0.46300003
-0.28813255 0.11055095 0.46300003
-0.28704023 0.11055095 0.46300003
-0.28656548 0.11078972 0.46400002
-0.28547081 0.11078972 0.46400002
-0.28376323 0.11055095 0.46300003
-0.28328145 0.11078972 0.46400002
-0.28218672 0.11078972 0.46400002
-0.28109205 0.11078972 0.46400002
-0.27939391 0.11055095 0.46300003
-0.27890268 0.11078972 0.46400002
-0.27780798 0.11078972 0.46400002
-0.27671331 0.11078972 0.46400002
-0.27561861 0.11078972 0.46400002
-0.27452391 0.11078972 0.46400002
-0.27342921 0.11078972 0.46400002
-0.27233455 0.11078972 0.46400002
-0.27065527 0.11055095 0.46300003
-0.26956296 0.11055095 0.46300003
-0.26847064 0.11055095 0.46300003
-0.26737833 0.11055095 0.46300003
-0.26628599 0.11055095 0.46300003
-0.26519367 0.11055095 0.46300003
-0.26410133 0.11055095 0.46300003
-0.26300901 0.11055095 0.46300003
-0.26191667 0.11055095 0.46300003
-0.26082435 0.11055095 0.46300003
-0.25973201 0.11055095 0.46300003
-0.25863969 0.11055095 0.46300003
-0.25754735 0.11055095 0.46300003
-0.25645503 0.11055095 0.46300003
-0.25536269 0.11055095 0.46300003
-0.25427037 0.11055095 0.46300003
-0.25317803 0.11055095 0.46300003
-0.25208572 0.11055095 0.46300003
-0.25153548 0.11078972 0.46400002
-0.25044081 0.11078972 0.46400002
-0.24934609 0.11078972 0.46400002
-0.24878645 0.1110285 0.46500003
-0.24768938 0.1110285 0.46500003
-0.24659236 0.1110285 0.46500003
-0.24549529 0.1110285 0.46500003
-0.24439827 0.1110285 0.46500003
-0.2433012 0.1110285 0.46500003
-0.24220416 0.1110285 0.46500003
-0.24110711 0.1110285 0.46500003
-0.24001007 0.1110285 0.46500003
-0.23891301 0.1110285 0.46500003
-0.2383274 0.11126727 0.46600002
-0.23722798 0.11126727 0.46600002
-0.23612858 0.11126727 0.46600002
-0.23502918 0.11126727 0.46600002
-0.23392978 0.11126727 0.46600002
-0.23283036 0.11126727 0.46600002
-0.23173095 0.11126727 0.46600002
-0.23112646 0.11150604 0.46700001
-0.2300247 0.11150604 0.46700001
-0.22892292 0.11150604 0.46700001
-0.22782116 0.11150604 0.46700001
-0.22671939 0.11150604 0.46700001
-0.22561763 0.11150604 0.46700001
-0.22451586 0.11150604 0.46700001
-0.22341409 0.11150604 0.46700001
-0.22231233 0.11150604 0.46700001
-0.22121057 0.11150604 0.46700001
-0.22010879 0.11150604 0.46700001
-0.21900703 0.11150604 0.46700001
-0.21790527 0.11150604 0.46700001
-0.21680351 0.11150604 0.46700001
-0.21616364 0.11174481 0.46800002
-0.2150595 0.11174481 0.46800002
-0.21395539 0.11174481 0.46800002
-0.21285126 0.11174481 0.46800002
-0.21174712 0.11174481 0.46800002
-0.21064301 0.11174481 0.46800002
-0.20953888 0.11174481 0.46800002
-0.20843476 0.11174481 0.46800002
-0.20733063 0.11174481 0.46800002
-0.20622651 0.11174481 0.46800002
-0.20512238 0.11174481 0.46800002
-0.20401825 0.11174481 0.46800002
-0.20291413 0.11174481 0.46800002
-0.20181 0.11174481 0.46800002
-0.20070589 0.11174481 0.46800002
-0.19960175 0.11174481 0.46800002
-0.19849764 0.11174481 0.46800002
-0.19739351 0.11174481 0.46800002
-0.1967088 0.11198357 0.46900001
-0.19560231 0.11198357 0.46900001
-0.19449583 0.11198357 0.46900001
-0.19338934 0.11198357 0.46900001
-0.19228286 0.11198357 0.46900001
-0.19117637 0.11198357 0.46900001
-0.1900699 0.11198357 0.46900001
-0.18896341 0.11198357 0.46900001
-0.18785693 0.11198357 0.46900001
-0.18675044 0.11198357 0.46900001
-0.18564396 0.11198357 0.46900001
-0.18453747 0.11198357 0.46900001
-0.18343098 0.11198357 0.46900001
-0.1823245 0.11198357 0.46900001
-0.18121801 0.11198357 0.46900001
-0.18011153 0.11198357 0.46900001
-0.17938673 0.11222235 0.47000003
-0.17827789 0.11222235 0.47000003
-0.17716904 0.11222235 0.47000003
-0.1760602 0.11222235 0.47000003
-0.17495136 0.11222235 0.47000003
-0.1738425 0.11222235 0.47000003
-0.17273365 0.11222235 0.47000003
-0.17162481 0.11222235 0.47000003
-0.17051597 0.11222235 0.47000003
-0.16940713 0.11222235 0.47000003
-0.16829829 0.11222235 0.47000003
-0.16718943 0.11222235 0.47000003
-0.16608059 0.11222235 0.47000003
-0.16497175 0.11222235 0.47000003
-0.16386291 0.11222235 0.47000003
-0.16275406 0.11222235 0.47000003
-0.16164522 0.11222235 0.47000003
-0.16053638 0.11222235 0.47000003
-0.15942754 0.11222235 0.47000003
-0.1583187 0.11222235 0.47000003
-0.15720984 0.11222235 0.47000003
-0.15643314 0.11246112 0.47100002
-0.15532193 0.11246112 0.47100002
-0.15421073 0.11246112 0.47100002
-0.15309952 0.11246112 0.47100002
-0.15198831 0.11246112 0.47100002
-0.15087712 0.11246112 0.47100002
-0.14976591 0.11246112 0.47100002
-0.14865471 0.11246112 0.47100002
-0.1475435 0.11246112 0.47100002
-0.14643231 0.11246112 0.47100002
-0.1453211 0.11246112 0.47100002
-0.14420991 0.11246112 0.47100002
-0.1430987 0.11246112 0.47100002
-0.1419875 0.11246112 0.47100002
-0.14087629 0.11246112 0.47100002
-0.14006184 0.1126999 0.47200003
-0.13894828 0.1126999 0.47200003
-0.13783471 0.1126999 0.47200003
-0.13701081 0.11293866 0.47300002
-0.13589489 0.11293866 0.47300002
-0.13506392 0.11317744 0.47400004
-0.13394564 0.11317744 0.47400004
-0.13282736 0.11317744 0.47400004
-0.13198695 0.1134162 0.47500002
-0.1308663 0.1134162 0.47500002
-0.12974566 0.1134162 0.47500002
-0.12862502 0.1134162 0.47500002
-0.12777281 0.11365497 0.47600001
-0.12664981 0.11365497 0.47600001
-0.12552682 0.11365497 0.47600001
-0.12440381 0.11365497 0.47600001
-0.12302183 0.1134162 0.47500002
-0.12190118 0.1134162 0.47500002
-0.12078054 0.1134162 0.47500002
-0.1196599 0.1134162 0.47500002
-0.11853927 0.1134162 0.47500002
-0.11741862 0.1134162 0.47500002
-0.11629798 0.1134162 0.47500002
-0.11517735 0.1134162 0.47500002
-0.11405671 0.1134162 0.47500002
-0.11293606 0.1134162 0.47500002
-0.11181542 0.1134162 0.47500002
-0.11069479 0.1134162 0.47500002
-0.10957414 0.1134162 0.47500002
-0.1084535 0.1134162 0.47500002
-0.10733286 0.1134162 0.47500002
-0.10621222 0.1134162 0.47500002
-0.072298042 0.094075762 0.39400002
-0.071368501 0.094075762 0.39400002
-0.070438959 0.094075762 0.39400002
-0.069509424 0.094075762 0.39400002
-0.068579882 0.094075762 0.39400002
-0.06765034 0.094075762 0.39400002
-0.066720799 0.094075762 0.39400002
-0.065791257 0.094075762 0.39400002
-0.064861715 0.094075762 0.39400002
-0.063932173 0.094075762 0.39400002
-0.063002631 0.094075762 0.39400002
-0.062230635 0.094314523 0.39500001
-0.061298735 0.094314523 0.39500001
-0.060366835 0.094314523 0.39500001
-0.059434935 0.094314523 0.39500001
-0.058503035 0.094314523 0.39500001
-0.057571135 0.094314523 0.39500001
-0.056639235 0.094314523 0.39500001
-0.055707335 0.094314523 0.39500001
-0.054775432 0.094314523 0.39500001
-0.053843528 0.094314523 0.39500001
-0.052911628 0.094314523 0.39500001
-0.051979728 0.094314523 0.39500001
-0.051047824 0.094314523 0.39500001
-0.050242804 0.094553299 0.39600003
-0.049308546 0.094553299 0.39600003
-0.048374288 0.094553299 0.39600003
-0.04744003 0.094553299 0.39600003
-0.046505768 0.094553299 0.39600003
-0.045571506 0.094553299 0.39600003
-0.044637248 0.094553299 0.39600003
-0.043702986 0.094553299 0.39600003
-0.042768728 0.094553299 0.39600003
-0.041940108 0.094792068 0.39700001
-0.041003488 0.094792068 0.39700001
-0.040066872 0.094792068 0.39700001
-0.039130252 0.094792068 0.39700001
-0.038193632 0.094792068 0.39700001
-0.037257016 0.094792068 0.39700001
-0.036320396 0.094792068 0.39700001
-0.035472907 0.095030844 0.39800003
-0.034533929 0.095030844 0.39800003
-0.033594951 0.095030844 0.39800003
-0.032655973 0.095030844 0.39800003
-0.031796683 0.095269613 0.39900002
-0.030855346 0.095269613 0.39900002
-0.029914008 0.095269613 0.39900002
-0.028972672 0.095269613 0.39900002
-0.028031334 0.095269613 0.39900002
-0.027089994 0.095269613 0.39900002
-0.026148656 0.095269613 0.39900002
-0.02520732 0.095269613 0.39900002
-0.024265984 0.095269613 0.39900002
-0.023266189 0.095030844 0.39800003
-0.022327211 0.095030844 0.39800003
-0.02144197 0.095269613 0.39900002
-0.020500634 0.095269613 0.39900002
-0.019559296 0.095269613 0.39900002
-0.018617958 0.095269613 0.39900002
-0.017676622 0.095269613 0.39900002
-0.016735284 0.095269613 0.39900002
-0.015793948 0.095269613 0.39900002
-0.014852609 0.095269613 0.39900002
-0.013911272 0.095269613 0.39900002
-0.012969933 0.095269613 0.39900002
-0.012028596 0.095269613 0.39900002
-0.011087259 0.095269613 0.39900002
-0.010145921 0.095269613 0.39900002
-0.0092045842 0.095269613 0.39900002
-0.0082632471 0.095269613 0.39900002
-0.0073219095 0.095269613 0.39900002
-0.0063805715 0.095269613 0.39900002
-0.0054392344 0.095269613 0.39900002
-0.0044978969 0.095269613 0.39900002
-0.0035565596 0.095269613 0.39900002
-0.002615222 0.095269613 0.39900002
-0.0016738846 0.095269613 0.39900002
-0.00073254714 0.095269613 0.39900002
0.00020931358 0.095508382 0.40000001
0.0011530103 0.095508382 0.40000001
0.0020967068 0.095508382 0.40000001
0.0030404036 0.095508382 0.40000001
0.0039841002 0.095508382 0.40000001
0.0049277968 0.095508382 0.40000001
0.0058714934 0.095508382 0.40000001
0.00681519 0.095508382 0.40000001
0.007758887 0.095508382 0.40000001
0.0087025836 0.095508382 0.40000001
0.0096462807 0.095508382 0.40000001
0.010589977 0.095508382 0.40000001
0.011533673 0.095508382 0.40000001
0.012477371 0.095508382 0.40000001
0.013421066 0.095508382 0.40000001
0.014364763 0.095508382 0.40000001
0.015346733 0.095747158 0.40100002
0.016292788 0.095747158 0.40100002
0.017238844 0.095747158 0.40100002
0.0181849 0.095747158 0.40100002
0.019130956 0.095747158 0.40100002
0.020077012 0.095747158 0.40100002
0.021023067 0.095747158 0.40100002
0.021969123 0.095747158 0.40100002
0.022972323 0.095985927 0.40200001
0.023920739 0.095985927 0.40200001
0.024869155 0.095985927 0.40200001
0.025817567 0.095985927 0.40200001
0.026765984 0.095985927 0.40200001
0.027714398 0.095985927 0.40200001
0.038483728 0.11723654 0.49100003
0.039642114 0.11723654 0.49100003
0.040800504 0.11723654 0.49100003
0.041958891 0.11723654 0.49100003
0.043117277 0.11723654 0.49100003
0.044275664 0.11723654 0.49100003
0.045434054 0.11723654 0.49100003
0.04659244 0.11723654 0.49100003
0.047750827 0.11723654 0.49100003
0.048909217 0.11723654 0.49100003
0.050067604 0.11723654 0.49100003
0.05122599 0.11723654 0.49100003
0.052384377 0.11723654 0.49100003
0.053433716 0.11699776 0.49000001
0.054589745 0.11699776 0.49000001
0.05585954 0.11723654 0.49100003
0.05701793 0.11723654 0.49100003
0.05817632 0.11723654 0.49100003
0.059334707 0.11723654 0.49100003
0.060493093 0.11723654 0.49100003
0.061651479 0.11723654 0.49100003
0.062809862 0.11723654 0.49100003
0.063968256 0.11723654 0.49100003
0.065259278 0.11747531 0.49200001
-0.3307609 0.11091989 0.46000001
-0.32967564 0.11091989 0.46000001
-0.32859039 0.11091989 0.46000001
-0.32750514 0.11091989 0.46000001
-0.32641989 0.11091989 0.46000001
-0.32533464 0.11091989 0.46000001
-0.32424939 0.11091989 0.46000001
-0.32246163 0.11067876 0.45900002
-0.32137871 0.11067876 0.45900002
-0.32029584 0.11067876 0.45900002
-0.31921294 0.11067876 0.45900002
-0.31813005 0.11067876 0.45900002
-0.31704715 0.11067876 0.45900002
-0.31596428 0.11067876 0.45900002
-0.31488135 0.11067876 0.45900002
-0.31448215 0.11091989 0.46000001
-0.31339687 0.11091989 0.46000001
-0.31231165 0.11091989 0.46000001
-0.31122637 0.11091989 0.46000001
-0.31014115 0.11091989 0.46000001
-0.30905586 0.11091989 0.46000001
-0.30864015 0.11116102 0.46100003
-0.30755252 0.11116102 0.46100003
-0.30646491 0.11116102 0.46100003
-0.3053773 0.11116102 0.46100003
-0.3042897 0.11116102 0.46100003
-0.30320209 0.11116102 0.46100003
-0.30211449 0.11116102 0.46100003
-0.30102685 0.11116102 0.46100003
-0.29993924 0.11116102 0.46100003
-0.2994999 0.11140215 0.46200001
-0.29840991 0.11140215 0.46200001
-0.29731995 0.11140215 0.46200001
-0.29622999 0.11140215 0.46200001
-0.29514003 0.11140215 0.46200001
-0.29405004 0.11140215 0.46200001
-0.29296008 0.11140215 0.46200001
-0.29187009 0.11140215 0.46200001
-0.29140955 0.11164328 0.46300003
-0.29031721 0.11164328 0.46300003
-0.28922489 0.11164328 0.46300003
-0.28813255 0.11164328 0.46300003
-0.28704023 0.11164328 0.46300003
-0.28656548 0.11188441 0.46400002
-0.28547081 0.11188441 0.46400002
-0.28376323 0.11164328 0.46300003
-0.28267092 0.11164328 0.46300003
-0.28157857 0.11164328 0.46300003
-0.28048626 0.11164328 0.46300003
-0.27939391 0.11164328 0.46300003
-0.2783016 0.11164328 0.46300003
-0.27720925 0.11164328 0.46300003
-0.27611694 0.11164328 0.46300003
-0.27561861 0.11188441 0.46400002
-0.27452391 0.11188441 0.46400002
-0.27342921 0.11188441 0.46400002
-0.27233455 0.11188441 0.46400002
-0.27123985 0.11188441 0.46400002
-0.27014518 0.11188441 0.46400002
-0.26847064 0.11164328 0.46300003
-0.26737833 0.11164328 0.46300003
-0.26628599 0.11164328 0.46300003
-0.26519367 0.11164328 0.46300003
-0.26410133 0.11164328 0.46300003
-0.26300901 0.11164328 0.46300003
-0.26191667 0.11164328 0.46300003
-0.26082435 0.11164328 0.46300003
-0.25973201 0.11164328 0.46300003
-0.25863969 0.11164328 0.46300003
-0.25754735 0.11164328 0.46300003
-0.25645503 0.11164328 0.46300003
-0.25536269 0.11164328 0.46300003
-0.25427037 0.11164328 0.46300003
-0.25317803 0.11164328 0.46300003
-0.25208572 0.11164328 0.46300003
-0.25153548 0.11188441 0.46400002
-0.25044081 0.11188441 0.46400002
-0.24934609 0.11188441 0.46400002
-0.24825141 0.11188441 0.46400002
-0.24768938 0.11212555 0.46500003
-0.24659236 0.11212555 0.46500003
-0.24549529 0.11212555 0.46500003
-0.24439827 0.11212555 0.46500003
-0.2433012 0.11212555 0.46500003
-0.24220416 0.11212555 0.46500003
-0.24110711 0.11212555 0.46500003
-0.24001007 0.11212555 0.46500003
-0.23891301 0.11212555 0.46500003
-0.23781598 0.11212555 0.46500003
-0.23722798 0.11236667 0.46600002
-0.23612858 0.11236667 0.46600002
-0.23502918 0.11236667 0.46600002
-0.23392978 0.11236667 0.46600002
-0.23283036 0.11236667 0.46600002
-0.23173095 0.11236667 0.46600002
-0.23063155 0.11236667 0.46600002
-0.2300247 0.1126078 0.46700001
-0.22892292 0.1126078 0.46700001
-0.22782116 0.1126078 0.46700001
-0.22623391 0.11236667 0.46600002
-0.22513451 0.11236667 0.46600002
-0.22451586 0.1126078 0.46700001
-0.22341409 0.1126078 0.46700001
-0.22231233 0.1126078 0.46700001
-0.22121057 0.1126078 0.46700001
-0.22010879 0.1126078 0.46700001
-0.21900703 0.1126078 0.46700001
-0.21790527 0.1126078 0.46700001
-0.21680351 0.1126078 0.46700001
-0.21570173 0.1126078 0.46700001
-0.2150595 0.11284894 0.46800002
-0.21395539 0.11284894 0.46800002
-0.21285126 0.11284894 0.46800002
-0.21174712 0.11284894 0.46800002
-0.21064301 0.11284894 0.46800002
-0.20953888 0.11284894 0.46800002
-0.20843476 0.11284894 0.46800002
-0.20733063 0.11284894 0.46800002
-0.20622651 0.11284894 0.46800002
-0.20512238 0.11284894 0.46800002
-0.20401825 0.11284894 0.46800002
-0.20291413 0.11284894 0.46800002
-0.20181 0.11284894 0.46800002
-0.20070589 0.11284894 0.46800002
-0.19960175 0.11284894 0.46800002
-0.19892177 0.11309006 0.46900001
-0.19781528 0.11309006 0.46900001
-0.1967088 0.11309006 0.46900001
-0.19560231 0.11309006 0.46900001
-0.19449583 0.11309006 0.46900001
-0.19338934 0.11309006 0.46900001
-0.19228286 0.11309006 0.46900001
-0.19117637 0.11309006 0.46900001
-0.1900699 0.11309006 0.46900001
-0.18896341 0.11309006 0.46900001
-0.18785693 0.11309006 0.46900001
-0.18675044 0.11309006 0.46900001
-0.18564396 0.11309006 0.46900001
-0.18453747 0.11309006 0.46900001
-0.18343098 0.11309006 0.46900001
-0.1823245 0.11309006 0.46900001
-0.18121801 0.11309006 0.46900001
-0.18011153 0.11309006 0.46900001
-0.17900506 0.11309006 0.46900001
-0.17789857 0.11309006 0.46900001
-0.17679209 0.11309006 0.46900001
-0.1756856 0.11309006 0.46900001
-0.17457911 0.11309006 0.46900001
-0.17347261 0.11309006 0.46900001
-0.17236613 0.11309006 0.46900001
-0.17162481 0.1133312 0.47000003
-0.17051597 0.1133312 0.47000003
-0.16940713 0.1133312 0.47000003
-0.16829829 0.1133312 0.47000003
-0.16718943 0.1133312 0.47000003
-0.16608059 0.1133312 0.47000003
-0.16497175 0.1133312 0.47000003
-0.16386291 0.1133312 0.47000003
-0.16275406 0.1133312 0.47000003
-0.16164522 0.1133312 0.47000003
-0.16053638 0.1133312 0.47000003
-0.15976673 0.11357232 0.47100002
-0.1583187 0.1133312 0.47000003
-0.15754433 0.11357232 0.47100002
-0.15643314 0.11357232 0.47100002
-0.15532193 0.11357232 0.47100002
-0.15421073 0.11357232 0.47100002
