# .PCD v0.7 - Point Cloud Data file format
VERSION 0.7
FIELDS x y z
SIZE 4 4 4
TYPE F F F
COUNT 1 1 1
WIDTH 397
HEIGHT 1
VIEWPOINT 0 0 0 1 0 0 0
POINTS 397
DATA ascii
0.002824351 0.10363302 0.02860431
-0.002926837 0.10618163 0.030010743
-0.0050079068 0.11127257 0.031856906
0.015551339 0.10432497 0.018765867
0.014257372 0.10474229 0.014405916
0.016455293 0.09788879 0.017919857
0.014899336 0.10312494 0.016247801
0.01367368 0.098533548 0.015228065
0.015824798 0.096778832 0.012872832
0.010854407 0.11218234 0.017538095
0.0054231184 0.11044868 0.020427113
0.014758108 0.10536159 0.01991998
0.0051248292 0.10945115 0.022131354
0.011116179 0.10778821 0.017318869
0.0023853101 0.10946389 0.021974616
0.012024555 0.10573088 0.017043581
-0.0041085128 0.11642572 0.023455374
-0.0061885673 0.1142308 0.024244087
-0.0043985555 0.11364892 0.029378818
-0.0085897837 0.11349522 0.030509489
-0.004982403 0.11465414 0.022892714
-0.0067483438 0.11865019 0.023213377
0.0079073552 0.10539983 0.016413962
0.0021417458 0.10931524 0.016440831
5.8301026e-05 0.11139506 0.016289501
-0.012815599 0.12171274 0.013718206
-0.015480723 0.10744295 0.031546041
-0.070206642 0.12857072 0.027613129
-0.069457762 0.12789403 0.025257558
-0.077795967 0.13331999 0.032723714
-0.07223314 0.13310874 0.041560326
-0.076711252 0.12634912 0.030545337
-0.06601923 0.12949051 0.026200257
-0.070759468 0.12517808 0.024396917
-0.070825569 0.12258365 0.024439421
-0.068323374 0.12118961 0.023002695
-0.074685045 0.12534575 0.041043662
-0.075031675 0.12437247 0.034517512
-0.065607354 0.12385526 0.047756866
-0.073911652 0.1212263 0.041743297
-0.059795253 0.12668526 0.04352954
-0.06966529 0.12592563 0.044614807
-0.062442068 0.11905628 0.044675071
-0.072206274 0.11697417 0.046301004
-0.069077648 0.12112619 0.025253087
-0.070340566 0.12712064 0.033179723
-0.068849377 0.12230395 0.02313618
-0.071627527 0.12190153 0.020282714
-0.072914094 0.12595282 0.027435372
-0.069994777 0.12235102 0.024031503
-0.061496239 0.14569511 0.023840234
-0.063367337 0.14697817 0.022997767
-0.033075333 0.17238639 0.0054624863
-0.03434645 0.17057587 0.0061029661
-0.033156812 0.1682931 0.00044479524
-0.032987215 0.15767051 0.0023664283
-0.057353161 0.14996989 0.0083270064
-0.040353432 0.16785908 0.0059809443
-0.048578314 0.16011201 -0.001980918
-0.04352485 0.15758486 0.00772426
-0.0547943 0.15675287 0.0072184876
-0.066702299 0.14796777 0.016818197
-0.069666661 0.13666534 0.01772771
-0.067082405 0.148671 0.015738208
-0.064672068 0.13257918 0.016925421
-0.068711683 0.12783386 0.020682171
-0.06696482 0.12986833 0.018093843
-0.060258985 0.13402219 0.016456073
-0.060283083 0.15123455 0.0064499713
-0.054175101 0.14928223 -0.00012621656
-0.061020434 0.13466768 0.015267686
-0.060799126 0.14395456 0.023655273
-0.056769259 0.13999633 0.029416034
-0.05734653 0.14743826 0.024408545
-0.047435787 0.13083936 0.020869531
-0.05142498 0.13879193 0.023159405
-0.016204193 0.11402243 0.026200511
-0.02177579 0.11085108 0.02817261
-0.031166688 0.11085339 0.02621212
-0.021740368 0.11895629 0.015567136
-0.033517394 0.11698671 0.018507699
-0.024966706 0.11211721 0.023457535
-0.035009488 0.11327968 0.023408579
-0.057178769 0.12835175 0.029715542
-0.043307502 0.11265366 0.025655778
-0.057195272 0.11302091 0.030915301
-0.047722001 0.12898678 0.021672599
-0.050565965 0.12495849 0.025443476
-0.045749776 0.11974936 0.020006035
-0.049101189 0.1170948 0.025242535
-0.030794658 0.14907019 0.0052527487
-0.051784091 0.1431779 0.0091082277
-0.048285406 0.13063473 0.014992751
-0.050769217 0.13547599 0.017331166
-0.039918434 0.15065952 0.0065234671
-0.051229954 0.14491476 0.0071440227
-0.021526091 0.12173155 0.013548002
-0.031664327 0.12111475 0.01388351
-0.040502291 0.12406331 0.013542823
-0.059707981 0.14980307 0.022077896
-0.069707997 0.12855169 0.017913885
-0.064093255 0.13732345 0.030741403
-0.06961076 0.1263009 0.016394686
-0.061945267 0.12730762 0.022465419
-0.060696308 0.12529661 0.027558878
-0.066002838 0.12557767 0.021382321
-0.061500795 0.13028941 0.022745388
-0.059684824 0.12830342 0.022571944
-0.05493851 0.13008158 0.039823696
-0.064126439 0.1178953 0.033651322
-0.06093289 0.1260397 0.029853702
-0.07170333 0.1208278 0.019494403
-0.060819056 0.12426587 0.026141344
-0.063635275 0.12758332 0.024390452
-0.059003808 0.13158257 0.013608806
-0.062047303 0.1346468 0.0084643215
-0.078857198 0.12018596 0.0062899934
0.015743794 0.096638657 0.025330562
0.019836972 0.088087492 0.027107188
0.021763559 0.082615837 0.030909097
0.021880556 0.086777888 0.028490189
0.020716079 0.091192119 0.030931413
0.024413954 0.081193447 0.026506832
0.015597354 0.07871449 0.031138705
0.010122709 0.085316919 0.031896539
0.0056046178 0.083736375 0.034617521
0.012114862 0.091239512 0.027690506
0.004221708 0.095313095 0.026333343
0.013798822 0.085922323 0.029058671
0.0040916861 0.089757144 0.029853014
0.0022270032 0.086937048 0.036398344
-0.0095248995 0.09084098 0.034516566
-0.0031753536 0.09687075 0.030743981
-0.012161404 0.098285466 0.032017555
-0.0023862454 0.095274769 0.032188807
-0.0093222037 0.094374463 0.034313947
0.010471507 0.086434372 0.031143919
0.0054221526 0.084729135 0.033957578
0.0094526019 0.076155163 0.032615066
0.0042364588 0.077983722 0.033690929
0.016037161 0.08202035 0.029254641
0.0082860198 0.073816173 0.032002024
0.00057346968 0.083354287 0.035688631
-0.014927232 0.08062008 0.038739495
-0.0050697727 0.076792814 0.03474886
-0.0072131604 0.077594347 0.034881949
0.022103818 0.072909214 0.025005486
0.017560579 0.067597389 0.026886657
0.01845412 0.061370097 0.025742888
0.010100598 0.05110215 0.024333764
0.0088480636 0.066489562 0.032057878
0.0023515956 0.063929781 0.033702496
0.0056668064 0.063461043 0.031805202
-3.8692262e-05 0.064981729 0.031696305
0.0071976893 0.066204548 0.030839765
0.0060361493 0.061962392 0.030432144
0.004526522 0.06044104 0.028467599
-0.0040644873 0.069489487 0.033542238
-0.0039587538 0.067730956 0.039717928
-0.00091915508 0.059487015 0.033576086
-0.0059957057 0.059091933 0.037864029
-0.0096458197 0.052958857 0.036637086
-0.00066272728 0.063770562 0.029900929
0.0099539962 0.051600121 0.022868101
0.0021823384 0.058500458 0.025732752
0.010939967 0.048653603 0.022400847
0.0027690758 0.052288648 0.02213837
-0.0043064356 0.062370948 0.02936583
-0.014951685 0.050494093 0.032789085
-0.014638007 0.035635229 0.036448561
-0.0083562341 0.057444297 0.026112206
-0.012981139 0.045591831 0.029729657
-0.0098072095 0.056604397 0.024403229
-0.014864935 0.039282206 0.035269283
0.020926058 0.086019889 0.013174115
0.010950634 0.095979922 0.018392917
0.016019171 0.097487263 0.016155733
0.012985311 0.087988093 0.023003966
0.016273182 0.088538639 0.018640487
0.013403242 0.095153175 0.014270532
0.007755287 0.094250545 0.021565601
0.014679275 0.090108804 0.016993733
0.021965057 0.079163387 0.012810516
0.047582585 0.07440912 0.010120925
0.0410183 0.068869002 0.011231771
0.015110957 0.083780989 0.021535514
0.015400629 0.077362068 0.02375837
0.015304163 0.085304156 0.020200603
0.020311819 0.077906959 0.017444512
0.020960812 0.093221322 0.0039272942
0.02492414 0.091296859 -0.0027842298
0.012723086 0.092530683 0.0097034583
0.017633416 0.092906512 0.0083321687
0.021191219 0.078137212 0.0083398353
0.050790198 0.066837996 0.011388289
0.048736453 0.070154838 0.012912853
0.019691572 0.08006572 0.005623972
0.016735457 0.10194261 0.015698995
0.0035359692 0.093154557 0.021700257
0.039512575 0.055213924 0.017480779
0.052184734 0.056134406 0.014780611
0.047085285 0.06263037 0.020726897
0.046696614 0.054964337 0.012775541
0.044381108 0.054154053 0.015687797
0.021259243 0.066753641 0.017606961
0.018701049 0.065942317 0.019723305
0.024761226 0.060025577 0.016022939
0.017367728 0.061576333 0.018515334
0.02376735 0.06120643 0.015107512
0.021565994 0.064451769 0.015237683
0.038023993 0.056753393 0.014427776
0.028890178 0.066182867 0.0074834451
0.031509358 0.068853512 0.010497853
0.029949084 0.064515777 0.01283561
0.01201576 0.057088431 0.016297063
0.0094155874 0.057369109 0.014359677
0.034932964 0.061007153 0.010289453
0.028088603 0.060119107 0.0093692336
0.019967414 0.057828203 0.0060083326
0.016822178 0.056049809 0.0075437054
0.055118091 0.063633576 0.0060134931
0.044734597 0.069415264 0.010759479
0.033271842 0.06139487 -0.0018652678
0.032429457 0.061484616 -0.0014424808
0.03408616 0.062938079 -0.0018331148
0.0082250368 0.060324524 0.01718121
0.0047649145 0.058735274 0.01508284
-0.012566005 0.086059555 0.045719061
-0.016935961 0.10055019 0.02890354
-0.029225832 0.098142333 0.028331539
-0.022829121 0.092097521 0.030883085
-0.031332657 0.093558982 0.030492991
-0.048225898 0.10026515 0.028130403
-0.05266415 0.10136065 0.027661286
-0.039684135 0.095017493 0.028851887
-0.051805153 0.092623025 0.029735886
-0.014105313 0.085404381 0.049134914
-0.021843074 0.084372491 0.035877731
-0.012122073 0.081657946 0.039190385
-0.017506935 0.08518517 0.041837502
-0.02361241 0.085427113 0.032728896
-0.015197454 0.074777037 0.03802783
-0.032888789 0.07936459 0.029165754
-0.041948475 0.086367778 0.028445575
-0.054384939 0.087444492 0.028897788
-0.039637174 0.079103127 0.027958389
-0.052489098 0.083336957 0.027402908
-0.06473431 0.10605005 0.028272321
-0.075162001 0.10963631 0.043444503
-0.055045437 0.089244142 0.028189158
-0.057196364 0.097180329 0.024240406
-0.076192133 0.12251669 0.036267038
-0.054620571 0.091920093 0.02611647
-0.054588094 0.091475554 0.025074331
-0.052850194 0.082799152 0.024988871
-0.058072925 0.087607346 0.022526029
-0.011142045 0.073683493 0.035024241
-0.0088019669 0.061557487 0.036765747
-0.018415477 0.060900617 0.036490738
-0.036665995 0.069713622 0.028934069
-0.019643694 0.057201982 0.038371041
-0.029205322 0.076345615 0.029289363
-0.040077977 0.066244744 0.028799167
-0.041676648 0.072737932 0.027150687
-0.041815083 0.060645983 0.034290507
-0.023952516 0.041621033 0.044831272
-0.022569468 0.041101996 0.045317713
-0.022779925 0.034182116 0.04094892
-0.028631901 0.042456649 0.052090641
-0.024007371 0.05142986 0.047258325
-0.033021584 0.053060554 0.04889426
-0.036997572 0.044963591 0.052132551
-0.040278073 0.045597106 0.047697768
-0.051958889 0.048263978 0.047840375
-0.041698951 0.049124338 0.048808277
-0.053204421 0.04247934 0.051162567
-0.058606036 0.050062671 0.043876208
-0.063532442 0.054893248 0.052533634
-0.02223671 0.10169939 0.027464857
-0.030221421 0.098978795 0.027406018
-0.040421885 0.099014886 0.027447995
-0.054251537 0.10517097 0.025655799
-0.05802479 0.10873554 0.024676133
-0.070416935 0.10958643 0.026205502
-0.064426094 0.092229806 0.021277927
-0.064707294 0.11374894 0.021118764
-0.065174267 0.093979493 0.017985899
-0.067774981 0.098605782 0.012644245
-0.067243986 0.096969016 0.0097379237
-0.067762598 0.093993291 0.013381203
-0.075064018 0.095088817 0.005248474
-0.061151184 0.091339476 0.019354174
-0.056526713 0.083062693 0.02206664
-0.064421616 0.087273143 0.019509034
-0.056263521 0.087587461 0.019015985
-0.069101252 0.089171298 0.016148558
-0.064194605 0.092238218 0.017430032
-0.058437098 0.08986038 0.0176608
-0.066539645 0.092402019 0.009109498
-0.057814244 0.095134035 0.018588759
-0.070661984 0.11089146 0.0044330023
-0.074818604 0.10156289 0.0037915055
-0.075793512 0.10188599 0.0037245285
-0.059770361 0.096939504 0.013813387
-0.068972751 0.091595843 0.003519943
-0.057422452 0.094260901 0.015411389
-0.059124812 0.09214215 0.0039449511
-0.017639641 0.068261042 0.031806573
-0.026404884 0.070011444 0.023489766
-0.024669051 0.054622222 0.030988308
-0.027126931 0.074243173 0.024300983
-0.043540765 0.063877247 0.034029625
-0.048769601 0.079358317 0.021146547
-0.041324791 0.054566067 0.040096328
-0.050601549 0.055685811 0.029510407
-0.0431659 0.076082133 0.01856862
-0.039669082 0.07036449 0.018759232
-0.033028621 0.053646427 0.035505787
-0.043917406 0.049934205 0.045593016
-0.052934457 0.05600645 0.039253231
-0.036384251 0.06455645 0.020145813
-0.0567507 0.052298412 0.017989669
-0.036543932 0.060581703 0.0094893686
-0.046490122 0.045658052 0.013044218
-0.036163721 0.058299795 0.01428142
-0.057635628 0.082470857 0.019851508
-0.058741376 0.085064851 0.017008211
-0.055520721 0.084251814 0.019628696
-0.05737254 0.087117389 0.017098688
-0.049083997 0.080476865 0.014093792
-0.056394421 0.085378498 0.015100528
-0.055700533 0.092092119 0.019960281
-0.062594466 0.044802554 0.038088057
-0.066672601 0.040041409 0.038246796
-0.065131851 0.042643711 0.034902599
-0.054948986 0.089565411 0.013353478
-0.048894729 0.077407159 0.0082944026
-0.053655732 0.081183136 0.0063535934
-0.060921077 0.050245002 0.0063962741
-0.05670131 0.093446799 0.011892215
-0.070622303 0.052537397 0.011519305
-0.079168834 0.051723555 0.012629943
-0.07169608 0.052588195 0.024330802
-0.079191402 0.047695827 0.023162533
-0.070241719 0.059855849 0.016977083
-0.078830563 0.049008202 0.011300251
-0.081744798 0.052365877 0.010983219
-0.02653184 0.17834687 -0.026462531
-0.021714034 0.17369786 -0.017923793
-0.017863143 0.16239937 -0.014186805
-0.018798679 0.15509981 -0.013628798
-0.016453709 0.1651459 -0.01670491
-0.018587302 0.15748426 -0.017659284
-0.02703017 0.18134516 -0.030053848
-0.017449893 0.17631945 -0.032012485
-0.014649898 0.16676389 -0.023579281
-0.029983919 0.18177541 -0.014658911
-0.02987441 0.1801177 -0.0085802488
-0.0281733 0.1779779 -0.012123879
-0.028444726 0.1735588 -0.00017971545
-0.026686763 0.18318424 -0.019687075
-0.023096155 0.17383507 -0.013925612
-0.028177824 0.16625562 -0.0098577403
-0.040074054 0.17641482 -0.00068235723
-0.030320872 0.15664227 -0.013843162
-0.035226874 0.16347089 -0.010463807
-0.028633744 0.15328553 -0.01334016
-0.028535567 0.15941823 -0.0018663015
-0.022716612 0.16358159 -0.014868344
-0.026243826 0.16843393 -0.0082175434
-0.040144961 0.16791378 0.0026624352
-0.046214152 0.17256467 0.00096805679
-0.041443087 0.16247289 -0.0027595775
-0.063205272 0.14710918 -0.014061279
-0.069664136 0.14950013 -0.01305634
-0.066039719 0.15643774 -0.020039601
-0.069887452 0.15533328 -0.019111428
-0.06725388 0.15314539 -0.01624454
-0.065694958 0.15250538 -0.015607482
-0.075384416 0.1544496 -0.021155119
-0.075259522 0.15112178 -0.016585648
-0.072116889 0.16901304 -0.037268806
-0.076529033 0.17167985 -0.037914112
-0.063699573 0.16064946 -0.02838246
-0.073527813 0.15798645 -0.025946317
-0.066595793 0.16490443 -0.032880988
-0.071232878 0.16597581 -0.033678014
-0.073764533 0.15679803 -0.028313333
-0.075369902 0.15628912 -0.024850711
-0.078194134 0.16653517 -0.035517734
-0.033772096 0.1521021 0.0024886373
-0.063499026 0.17606677 -0.045502938
-0.071830258 0.17621334 -0.046115223
-0.070020296 0.18123412 -0.054704346
-0.061749078 0.17890967 -0.050724559
-0.067554154 0.18048461 -0.054140963
-0.076897226 0.17630629 -0.045673404
