# .PCD v0.7 - Point Cloud Data file format
VERSION 0.7
FIELDS x y z
SIZE 4 4 4
TYPE F F F
COUNT 1 1 1
WIDTH 397
HEIGHT 1
VIEWPOINT 0 0 0 1 0 0 0
POINTS 397
DATA ascii
0.0054954085 0.11065216 0.038428809
-0.0017381967 0.10998003 0.03941039
-0.0068752705 0.11390456 0.036466885
0.023250813 0.11520605 0.027798915
0.024807764 0.11815438 0.02234461
0.031938173 0.10976714 0.024102272
0.025548723 0.11663444 0.023527103
0.027999533 0.1189305 0.01708586
0.034710068 0.11037166 0.01881459
0.015564919 0.12005 0.027145594
0.0083884308 0.12055917 0.028271211
0.019342922 0.11410572 0.029917667
0.0094663054 0.11527053 0.032432918
0.01555647 0.12098041 0.024954719
0.0046752132 0.12474096 0.023568913
0.018008858 0.11931893 0.024527952
-0.0046000048 0.12150911 0.028368227
-0.0070390436 0.12168357 0.027794223
-0.0064414786 0.11565859 0.033671807
-0.010912726 0.11533026 0.033733249
-0.0048944573 0.1254075 0.022339951
-0.00925868 0.12628889 0.021834787
0.014529473 0.12544374 0.016030433
0.0059975004 0.12626803 0.017929098
0.00074782927 0.12699492 0.017733654
-0.014393807 0.12986538 0.018121783
-0.017065808 0.1103919 0.036892444
-0.075250469 0.12940311 0.042776782
-0.072729267 0.14016475 0.037171014
-0.07374645 0.13962562 0.03598094
-0.06793122 0.1351852 0.038071938
-0.074058697 0.13216813 0.039891835
-0.077821501 0.12963389 0.042059362
-0.077286057 0.13970798 0.036332678
-0.078316636 0.13099892 0.040371742
-0.083775245 0.13241617 0.035722423
-0.072322309 0.12242183 0.042164817
-0.074001476 0.12307916 0.042786136
-0.065518014 0.12178108 0.039743349
-0.070864007 0.11671673 0.041115291
-0.061845358 0.12457783 0.036851279
-0.066969506 0.1250432 0.03901745
-0.065947168 0.11943555 0.03758489
-0.068871237 0.11412222 0.040254541
-0.076775074 0.12444307 0.03962905
-0.075109944 0.12059287 0.039952815
-0.077757433 0.12518175 0.037479721
-0.082441986 0.12759505 0.034556393
-0.075663447 0.12219305 0.037397489
-0.0798693 0.12129279 0.035349175
-0.059299558 0.14423282 0.025426069
-0.058310278 0.14901161 0.022200212
-0.035313223 0.16860814 -0.0063429321
-0.036869362 0.16716649 -0.0056870393
-0.033567797 0.16531058 -0.0035197553
-0.03524363 0.15870862 0.0010196749
-0.051161472 0.15403229 0.010820878
-0.041352127 0.16323866 -0.0020235721
-0.046850361 0.16022782 0.0012118486
-0.043659143 0.15560858 0.0062466837
-0.054028995 0.15509804 0.0083153527
-0.066530786 0.14782119 0.025736945
-0.070395425 0.14542717 0.027974486
-0.066458151 0.14825822 0.023177767
-0.074331194 0.14815198 0.023396302
-0.078958116 0.14513169 0.0265599
-0.080175743 0.14641748 0.021061743
-0.082970701 0.14447942 0.020366037
-0.056095984 0.15366428 0.0082914568
-0.057375457 0.15477668 0.0054667378
-0.083697349 0.14374596 0.019150799
-0.061910301 0.14030993 0.026335511
-0.057266925 0.13574466 0.027031401
-0.059138313 0.14267614 0.022927515
-0.045143094 0.13204409 0.02293201
-0.050379869 0.13751234 0.021566052
-0.018434811 0.11844274 0.030132592
-0.024049656 0.11509787 0.033082318
-0.032500789 0.11661355 0.032176297
-0.022676667 0.12723036 0.021685502
-0.03173219 0.12495535 0.025575206
-0.025679274 0.12056766 0.028864747
-0.03467172 0.12023614 0.030075073
-0.055440843 0.12821533 0.029676847
-0.04262476 0.11724999 0.032754205
-0.05535977 0.11503585 0.035068724
-0.045362707 0.13040279 0.02400513
-0.048435945 0.12639029 0.027673608
-0.04335909 0.12613094 0.026529314
-0.047016848 0.12001292 0.031372428
-0.033643123 0.15194635 0.0040794746
-0.050036069 0.14664502 0.013971832
-0.044679172 0.13406135 0.020395018
-0.047239602 0.13767229 0.019939018
-0.040546823 0.15165673 0.006843775
-0.049441773 0.14866658 0.011690185
-0.022491438 0.13060898 0.019816114
-0.029828519 0.12958099 0.022241857
-0.037388012 0.1317924 0.021991573
-0.062938079 0.1423021 0.02539386
-0.075432494 0.14277716 0.027698284
-0.064578243 0.13566199 0.028425843
-0.081050195 0.13978863 0.029002067
-0.084953845 0.14176433 0.025262307
-0.085610487 0.13467334 0.027538888
-0.083209313 0.14248994 0.02191766
-0.08783523 0.14199914 0.019351495
-0.086898707 0.13691668 0.022659563
-0.063377663 0.12866238 0.031732149
-0.06365633 0.11695964 0.034598872
-0.084662154 0.12952885 0.027617954
-0.080548748 0.11947595 0.032414198
-0.087180927 0.12834409 0.022357814
-0.088771701 0.12291578 0.020563949
-0.085847497 0.13951865 0.018425275
-0.085340954 0.13672051 0.014293678
-0.090601221 0.11654646 0.017327238
0.020365188 0.10146341 0.037542973
0.030149475 0.090513751 0.036829181
0.023800237 0.093056835 0.04070298
0.031651687 0.083148688 0.036854304
0.024512209 0.087659135 0.040576838
0.032710996 0.078328408 0.035987772
0.024252472 0.074824363 0.042147759
0.014429664 0.092609674 0.044309653
0.0074224151 0.091733776 0.046027634
0.015696898 0.10041643 0.039010212
0.0095430436 0.10424544 0.038579285
0.018244803 0.094567664 0.040601034
0.0094010616 0.099463783 0.041282061
5.7696016e-05 0.091969863 0.046779651
-0.010300916 0.096429296 0.045218602
-0.0032200592 0.10257421 0.041582778
-0.013901243 0.10311695 0.04125385
-0.0035400055 0.098968863 0.042754672
-0.01164019 0.099261999 0.04276913
0.014474148 0.086823121 0.044354938
0.0059839068 0.08532095 0.046723321
0.015341842 0.075587668 0.045539651
0.0067726551 0.078137398 0.047016244
0.019196931 0.090593867 0.03988526
0.018253634 0.073956236 0.043990076
-0.0010224112 0.087334536 0.045980863
-0.015053652 0.088629209 0.046677422
-0.0021082051 0.076798461 0.048457459
-0.0057536433 0.076235846 0.048163541
0.030688295 0.071198806 0.036765397
0.025938928 0.066160291 0.039687082
0.026730252 0.057900511 0.038981732
0.022706201 0.045206979 0.037697393
0.013462394 0.067050315 0.045565523
0.0048806029 0.064293258 0.047456246
0.0114106 0.061636403 0.046121575
0.003995399 0.060161512 0.046908405
0.019652937 0.063750915 0.042263087
0.01891735 0.058079749 0.041818786
0.011586856 0.052981824 0.043559901
-0.0023178989 0.068287298 0.047514755
-0.009638723 0.066806428 0.047881085
-0.0031432353 0.056641079 0.047177665
-0.012709129 0.056271933 0.046979506
-0.013776457 0.052619163 0.046498388
0.0043831104 0.050796464 0.044475608
0.016609311 0.044626571 0.038825616
0.0065486655 0.048461292 0.042490799
0.017036662 0.041875612 0.037597857
0.0062372619 0.039963059 0.039353792
-0.00019145117 0.052693188 0.045249674
-0.013154558 0.050168496 0.045770805
-0.0097767273 0.037254181 0.044714916
-0.0024393927 0.045158993 0.043399289
-0.0086983349 0.043523595 0.043877937
-0.00025121719 0.040273592 0.040328637
-0.010615692 0.04077433 0.043581497
0.04309858 0.092745014 0.020071089
0.030776935 0.10411995 0.026586626
0.026575785 0.10406036 0.029949592
0.033283472 0.095019303 0.028682072
0.028232703 0.099484429 0.03035092
0.033574536 0.10304875 0.022804961
0.029840354 0.10491396 0.025410242
0.034815405 0.096910194 0.024956122
0.042755861 0.085327521 0.022403384
0.05033217 0.078027934 0.017491607
0.04861496 0.071426116 0.021161338
0.032821849 0.086081475 0.031347908
0.034620337 0.07581801 0.032290708
0.037689991 0.087934881 0.025771096
0.039096698 0.076824196 0.027988113
0.043351155 0.096974462 0.012620525
0.045692708 0.097367905 0.0064520612
0.036544185 0.10717927 0.01431628
0.040622607 0.096479654 0.016660716
0.04672236 0.086434849 0.015117193
0.053185862 0.069508053 0.016272407
0.051457394 0.071545631 0.017341053
0.046951056 0.087887153 0.012616445
0.018695122 0.10924417 0.029034644
0.0096740425 0.10314235 0.036148436
0.043198038 0.057657037 0.02697671
0.053809505 0.06270159 0.017953262
0.047083639 0.065786503 0.022527499
0.050841298 0.059688959 0.020852847
0.047164693 0.058088403 0.023544883
0.033564672 0.064327143 0.033014625
0.031128263 0.063610859 0.03488674
0.033033095 0.054488458 0.032243747
0.028591421 0.057813544 0.035078034
0.040002979 0.066019192 0.027148213
0.036266301 0.062983409 0.030287459
0.038838856 0.051080272 0.027815107
0.048021682 0.050134182 0.021043286
0.043531049 0.049115568 0.023653116
0.036049929 0.048139289 0.027997795
0.025600649 0.047895581 0.033954028
0.027899358 0.043344103 0.031411257
0.039105065 0.046842333 0.025420601
0.034775253 0.041185085 0.026433803
0.034717519 0.03782228 0.025952389
0.033238526 0.040219046 0.027245289
0.055253584 0.067716196 0.011601964
0.04822468 0.072001979 0.017611144
0.057461821 0.056321215 0.013168921
0.052035827 0.047029365 0.015512004
0.050047424 0.04532313 0.016507626
0.023549221 0.050791722 0.03536842
0.019053478 0.039970901 0.033070672
-0.017108828 0.090866216 0.0447197
-0.01962414 0.10563965 0.038664322
-0.030691732 0.10106713 0.040016331
-0.024364306 0.097958706 0.041352808
-0.033314928 0.099701874 0.040452134
-0.047468442 0.10471167 0.037641328
-0.053271856 0.10603555 0.037623852
-0.042063795 0.098931916 0.039682224
-0.051389325 0.095824808 0.038728222
-0.020527594 0.08471632 0.044951953
-0.028514523 0.08287099 0.043542374
-0.019188134 0.078460649 0.045434795
-0.021100879 0.089286387 0.04245352
-0.028465729 0.085124783 0.041879661
-0.022328595 0.070766628 0.04433636
-0.034970142 0.078268774 0.041606721
-0.043277353 0.085181542 0.040020235
-0.053063825 0.085941471 0.039259907
-0.041732941 0.077280924 0.040068269
-0.052679639 0.078833632 0.037808243
-0.063551813 0.10659187 0.035410214
-0.070804872 0.11117916 0.036154348
-0.05765222 0.095187679 0.037630469
-0.066658571 0.098616995 0.035851382
-0.076740921 0.11466368 0.033464525
-0.05994235 0.088367879 0.036687337
-0.063652061 0.08984147 0.035186712
-0.057401352 0.075839482 0.035416614
-0.065119855 0.081663996 0.03278783
-0.018323619 0.069068484 0.045043439
-0.016547119 0.060040127 0.045037437
-0.026147105 0.059939474 0.043506537
-0.035701856 0.069187008 0.040898714
-0.024118414 0.05811261 0.043691825
-0.033686213 0.059341472 0.041431759
-0.04092291 0.067045167 0.040076815
-0.042468537 0.071405016 0.039175544
-0.037720546 0.06054613 0.039942749
-0.023526369 0.044415243 0.044548448
-0.022026611 0.045262326 0.044553529
-0.020785483 0.037352145 0.045954797
-0.026752098 0.043956906 0.043616597
-0.022508675 0.049579803 0.043185301
-0.030567231 0.047835205 0.041596055
-0.033572942 0.039745912 0.043365352
-0.03691208 0.045949392 0.040463474
-0.045769811 0.048077304 0.036801688
-0.039097704 0.042129427 0.037436463
-0.046006743 0.03998442 0.03780432
-0.050365798 0.052214447 0.033239793
-0.04937423 0.037871569 0.034666866
-0.025580065 0.10871653 0.035900287
-0.032503348 0.10663389 0.036175955
-0.040862605 0.10680636 0.035864439
-0.053098969 0.10826807 0.034947954
-0.059042864 0.10846382 0.034936424
-0.070057429 0.10807006 0.03325963
-0.070157096 0.096509494 0.032364354
-0.079137526 0.10548723 0.029269928
-0.07632798 0.099004798 0.029798716
-0.08357238 0.1043859 0.024996869
-0.086746722 0.10030681 0.022009192
-0.083363675 0.099876851 0.024889769
-0.089927725 0.099172018 0.017343441
-0.069853894 0.090883523 0.031708255
-0.060140118 0.07652925 0.032989655
-0.067911476 0.081523865 0.029952647
-0.071775906 0.075618587 0.024794783
-0.07540299 0.088980116 0.027707804
-0.074916661 0.081539333 0.025093697
-0.07983955 0.090272002 0.023599232
-0.083867371 0.09325631 0.019852065
-0.078458689 0.083059102 0.021063861
-0.088527255 0.10767963 0.018396227
-0.08843983 0.10128845 0.017951481
-0.087999083 0.10323868 0.017039578
-0.083468646 0.08657182 0.016876625
-0.08623191 0.091768272 0.014922369
-0.079216309 0.080192685 0.016537488
-0.081584677 0.075101294 0.0073589105
-0.025678718 0.065627091 0.042291149
-0.032369483 0.063105956 0.040163282
-0.029608104 0.054621078 0.04024668
-0.0331419 0.057775848 0.039658107
-0.040914655 0.063961565 0.037757408
-0.052545961 0.068049289 0.033610381
-0.037688106 0.055781133 0.038453616
-0.051338214 0.057139196 0.030115867
-0.057127085 0.060011525 0.02696633
-0.054816924 0.06181198 0.02892852
-0.034476731 0.053255744 0.038403638
-0.040329881 0.047589559 0.036197387
-0.047871429 0.052857436 0.031359445
-0.05312176 0.055243239 0.027548563
-0.060744442 0.051856872 0.017537951
-0.063103057 0.049649246 0.011915995
-0.056554995 0.044552647 0.020270091
-0.06171079 0.048868109 0.015740331
-0.059949718 0.070179284 0.030246411
-0.06547609 0.070291474 0.02596204
-0.060775764 0.065773621 0.026776055
-0.066427886 0.07061737 0.024708673
-0.062480133 0.060802151 0.022585331
-0.065664485 0.06435471 0.021693287
-0.072409861 0.072948165 0.019600842
-0.052748062 0.048173539 0.027760632
-0.052616909 0.044638876 0.027153423
-0.053202882 0.044912327 0.024634359
-0.072430238 0.069242992 0.01510472
-0.062609732 0.057879791 0.019239381
-0.067956626 0.060546648 0.015438228
-0.066699877 0.049039103 0.0041734194
-0.076026365 0.074665517 0.015237149
-0.062303834 0.045095444 0.0091318833
-0.064029865 0.043245256 0.0051772879
-0.060378734 0.044459362 0.013628838
-0.060419988 0.040903661 0.010061527
-0.061572284 0.043695353 0.0082227699
-0.063641004 0.045880731 0.0060027442
-0.064599514 0.04393879 0.0023101931
-0.017227774 0.18352933 -0.018131102
-0.018482342 0.17479439 -0.0145288
-0.016440693 0.16307433 -0.012644025
-0.015346062 0.15782821 -0.0093946829
-0.01487494 0.16579153 -0.014544327
-0.015383895 0.16063905 -0.012798177
-0.016986221 0.18682836 -0.019580519
-0.0090731578 0.18021026 -0.023739109
-0.0097214933 0.16838494 -0.018473363
-0.0260756 0.18214512 -0.011770181
-0.029943218 0.17966622 -0.0089938082
-0.026429135 0.17791234 -0.010795255
-0.032166574 0.1726981 -0.0069435053
-0.022596572 0.18414965 -0.015192578
-0.021798842 0.17391856 -0.012695513
-0.026508383 0.16687573 -0.008072732
-0.038160823 0.16683614 -0.0057860687
-0.02597248 0.16311881 -0.0076000858
-0.031954322 0.16583329 -0.0061398768
-0.023871059 0.15997684 -0.0067613539
-0.028745728 0.15872933 -0.0026918722
-0.020571601 0.16509947 -0.011616368
-0.027647307 0.16910399 -0.0093586668
-0.04103744 0.16308616 -0.0038231718
-0.044723209 0.16341798 -0.0053362348
-0.03876736 0.16097035 -0.0015403824
-0.065424114 0.15954357 -0.0089105843
-0.071235351 0.15805447 -0.0077921888
-0.066633441 0.16259807 -0.016541665
-0.070489503 0.16058017 -0.015607219
-0.068588279 0.16032243 -0.011607213
-0.067114681 0.16018927 -0.010777162
-0.075822458 0.1599347 -0.01746529
-0.076681919 0.15856266 -0.011940937
-0.072006449 0.17117278 -0.036241014
-0.076303348 0.17207694 -0.037726354
-0.064140014 0.16751578 -0.025152603
-0.072752394 0.16407517 -0.02312851
-0.067619905 0.16939761 -0.030687548
-0.07109721 0.16885567 -0.03189734
-0.074026555 0.16451128 -0.025183158
-0.076176494 0.16189143 -0.021714427
-0.078211732 0.16994533 -0.033769645
-0.036032476 0.1546935 0.0024696726
-0.064005315 0.17499791 -0.045965638
-0.071702011 0.17565343 -0.046388675
-0.070253968 0.17948052 -0.055497628
-0.062505111 0.17697972 -0.051577184
-0.06785354 0.17897852 -0.054817926
-0.076972052 0.17559461 -0.045998305
