# .PCD v0.7 - Point Cloud Data file format
VERSION 0.7
FIELDS x y z
SIZE 4 4 4
TYPE F F F
COUNT 1 1 1
WIDTH 1362
HEIGHT 1
VIEWPOINT 0 0 0 1 0 0 0
POINTS 1362
DATA ascii
-0.19866785 -0.12464987 0.45301217
-0.1980869 -0.11426856 0.45343363
-0.19929063 -0.10322705 0.45437607
-0.2006992 -0.094008483 0.45438233
-0.2031845 -0.082745202 0.45357311
-0.20541313 -0.07344491 0.45422396
-0.21244994 -0.058844279 0.45468444
-0.207103 -0.063462794 0.45301896
-0.2232291 -0.17420541 0.46641904
-0.21599264 -0.1713825 0.46597856
-0.21297452 -0.16718043 0.46966535
-0.21410072 -0.1666933 0.4629339
-0.20220721 -0.16671462 0.45965588
-0.19423054 -0.15542923 0.45701241
-0.19288635 -0.14423567 0.4562591
-0.19502375 -0.13714086 0.4585849
-0.19391584 -0.12563008 0.46040985
-0.1939508 -0.11405312 0.46097806
-0.19481026 -0.10344965 0.46154559
-0.1964311 -0.093544245 0.4606151
-0.19881472 -0.08283785 0.45982355
-0.20045827 -0.074341848 0.45997331
-0.31316429 -0.058977101 0.46125087
-0.30925322 -0.059068479 0.46266934
-0.29286787 -0.05981525 0.45979056
-0.28986543 -0.058410868 0.45844501
-0.26774266 -0.056382615 0.45274419
-0.2133178 -0.05774669 0.46054879
-0.20353186 -0.061737541 0.46165079
-0.32751253 -0.053124823 0.45967698
-0.31712848 -0.053071044 0.46149665
-0.30785888 -0.052423257 0.46108821
-0.29785785 -0.052010078 0.4604153
-0.28900552 -0.052936353 0.45851508
-0.27595431 -0.053120412 0.45634532
-0.26775986 -0.052567843 0.45426774
-0.26127332 -0.053755295 0.45311394
-0.21441454 -0.054194182 0.46275386
-0.20834678 -0.0550064 0.46279913
-0.32748112 -0.043780237 0.45964041
-0.31739548 -0.043884415 0.46095422
-0.30717388 -0.043608248 0.46032241
-0.29861027 -0.045337118 0.46069044
-0.28969207 -0.046417564 0.45993471
-0.32792893 -0.034104642 0.46067977
-0.3176026 -0.033715684 0.46264789
-0.30765128 -0.034058802 0.46258733
-0.29964903 -0.03196349 0.46331021
-0.29009274 -0.029410483 0.4674485
-0.32833153 -0.023868455 0.46297404
-0.31809932 -0.023883501 0.46323168
-0.30763924 -0.024116509 0.46208647
-0.29793143 -0.024012657 0.46493354
-0.28789374 -0.023916775 0.46613753
-0.27784657 -0.023440519 0.46536326
-0.26897594 -0.02223162 0.46500877
-0.26077908 -0.019606918 0.46513951
-0.32807392 -0.014047593 0.46220398
-0.31771114 -0.014024446 0.46230963
-0.30724207 -0.014048582 0.46128225
-0.29806042 -0.014107099 0.46432409
-0.28786123 -0.014057678 0.46524662
-0.27810434 -0.014194314 0.46470535
-0.27010053 -0.017921781 0.46528149
-0.32749107 -0.0042358004 0.46083298
-0.31798249 -0.0040677995 0.46081933
-0.30719495 -0.0041892547 0.46096569
-0.29793075 -0.0040742839 0.46387529
-0.28786859 -0.0040219994 0.46493584
-0.27767211 -0.004225757 0.4647342
-0.27067918 -0.0040896195 0.46564427
-0.25469759 -0.0053379452 0.46653745
-0.25184914 -0.0052786092 0.46645829
-0.32751134 0.0057723913 0.46001855
-0.31783327 0.0054896343 0.46021998
-0.30738947 0.0055429214 0.46148747
-0.2977629 0.0057633175 0.463514
-0.28893572 0.0055332435 0.46500692
-0.27824387 0.0065583619 0.46590397
-0.27058646 0.0083528729 0.46616203
-0.32767513 0.015534486 0.46007624
-0.31766376 0.015454704 0.46118701
-0.30761018 0.015432024 0.46200725
-0.29760829 0.015356285 0.46336889
-0.28790134 0.015424329 0.4648177
-0.27798343 0.015573117 0.46575257
-0.26769271 0.015730863 0.4663043
-0.25762948 0.016360467 0.46689123
-0.25134766 0.016401868 0.46721667
-0.32729724 0.025917022 0.46098223
-0.31785798 0.025739476 0.4621076
-0.30763966 0.025803894 0.46284932
-0.2978951 0.025944097 0.46377537
-0.28786418 0.025871992 0.46418989
-0.27799392 0.025910692 0.46490628
-0.2677587 0.025601383 0.46600813
-0.25759989 0.025514245 0.46682847
-0.24884462 0.02593117 0.46730611
-0.32741079 0.03631229 0.46182272
-0.31790045 0.036085177 0.46286255
-0.30769429 0.036305949 0.46396884
-0.29766676 0.036634907 0.4636465
-0.2880508 0.036342163 0.4642418
-0.27769691 0.036139082 0.46469074
-0.26770401 0.035459731 0.46553144
-0.25844073 0.034067091 0.46672726
-0.25133163 0.031805664 0.46712101
-0.23449047 0.038862947 0.46820113
-0.32768357 0.045886204 0.46410546
-0.3179386 0.046075385 0.46391851
-0.30793345 0.046183933 0.46418652
-0.29794702 0.046180964 0.46298319
-0.28822738 0.046037711 0.46370313
-0.27762139 0.046305295 0.46475366
-0.26755297 0.04573201 0.46541685
-0.25898975 0.048569821 0.46620184
-0.24775228 0.048613779 0.46705663
-0.32756144 0.055930961 0.46391943
-0.31759131 0.055655014 0.46402478
-0.30789599 0.055732574 0.46394059
-0.29827216 0.055594955 0.46282488
-0.28804493 0.056105435 0.46345493
-0.27796131 0.056185346 0.46454847
-0.26759741 0.05621513 0.46541464
-0.25769281 0.056168124 0.46599081
-0.2488203 0.054990243 0.46682844
-0.23997344 0.05446459 0.46746254
-0.32757169 0.065596141 0.46152282
-0.31767917 0.06588953 0.46301362
-0.30786818 0.065651797 0.46364734
-0.29813167 0.06584201 0.46349451
-0.28791255 0.065833844 0.46327576
-0.27780718 0.066012241 0.46439815
-0.26792952 0.06613984 0.46514654
-0.25755474 0.066081978 0.46572742
-0.25130427 0.067600697 0.46604317
-0.3277823 0.075720437 0.46119803
-0.31787306 0.075988263 0.46234393
-0.30826104 0.076238871 0.46290368
-0.29799557 0.075862393 0.46300095
-0.28830194 0.07580442 0.46335742
-0.27784276 0.075553171 0.464151
-0.26793966 0.075783655 0.46480587
-0.25787103 0.076071501 0.46537048
-0.24794272 0.076198913 0.46611348
-0.23798679 0.078201145 0.46698126
-0.23197426 0.079867177 0.46734414
-0.32702902 0.086034715 0.46159202
-0.31787333 0.086168833 0.46166939
-0.30807075 0.086423799 0.46232495
-0.29767793 0.086172588 0.46210578
-0.28819588 0.085495241 0.46292084
-0.27804071 0.08552067 0.46432671
-0.26780257 0.085767433 0.46482444
-0.2579326 0.085522309 0.46512339
-0.24834809 0.086246863 0.46578681
-0.23743902 0.08668226 0.46676946
-0.23032877 0.087235905 0.46726364
-0.32713369 0.09580905 0.46146914
-0.31808242 0.096001431 0.46185681
-0.30763143 0.095950931 0.46220526
-0.29745877 0.09581805 0.46139506
-0.2879239 0.095702879 0.46247444
-0.27777255 0.095562689 0.46444595
-0.26763242 0.095832281 0.46496326
-0.25822571 0.095716581 0.4648447
-0.24822542 0.095566884 0.46557137
-0.23822583 0.095840521 0.46638733
-0.22847864 0.096241571 0.46709597
-0.21904269 0.098936945 0.46767581
-0.20902552 0.099684089 0.46836498
-0.32744083 0.10565607 0.4610202
-0.31800327 0.1060285 0.4617902
-0.30768761 0.10582431 0.46146345
-0.29739368 0.10581917 0.46069831
-0.28756204 0.10608841 0.46199986
-0.27779463 0.10586488 0.46435547
-0.26755506 0.10590908 0.46483958
-0.25773665 0.10593332 0.46491063
-0.24820986 0.10570052 0.46539488
-0.238043 0.10573196 0.46630499
-0.22798532 0.10580225 0.466934
-0.21931334 0.10548936 0.46752387
-0.20952682 0.10270502 0.46826363
-0.32718796 0.11570684 0.46131685
-0.31798419 0.11597925 0.46116883
-0.30823594 0.11577236 0.46082973
-0.29746506 0.11569566 0.46054885
-0.28800952 0.11586343 0.46190485
-0.27774164 0.11593481 0.46418902
-0.26760042 0.11610936 0.46474162
-0.25753564 0.11591562 0.46486285
-0.24798451 0.11575143 0.46529287
-0.23805475 0.11550276 0.46600267
-0.228357 0.11557879 0.46695241
-0.218806 0.11451773 0.46783504
-0.21245722 0.11361709 0.46824032
-0.32673731 0.12570326 0.46160519
-0.31776595 0.12617481 0.46078461
-0.30798119 0.12567098 0.46059835
-0.29768196 0.12549525 0.46147403
-0.28817341 0.12553281 0.46255028
-0.27809685 0.12556031 0.46281666
-0.26793927 0.12609224 0.46352437
-0.25783685 0.12614441 0.46408674
-0.24785344 0.12593041 0.46514484
-0.23770474 0.12585708 0.46560511
-0.22871399 0.12611985 0.46594214
-0.32714039 0.13603956 0.45983678
-0.31736925 0.13580313 0.4602057
-0.30761039 0.13594586 0.46076921
-0.29799393 0.13562053 0.46166539
-0.28740963 0.13572082 0.46302199
-0.27783787 0.13579498 0.46256223
-0.26780561 0.13591963 0.46212688
-0.25793055 0.13610604 0.46279642
-0.2481654 0.13600871 0.4642334
-0.23778228 0.13620873 0.46463141
-0.22747864 0.13598844 0.46488628
-0.21816911 0.13692223 0.46511674
-0.21012533 0.13840155 0.46621796
-0.32714406 0.14579761 0.4591375
-0.31745726 0.14576593 0.46043655
-0.30763638 0.14591886 0.45999363
-0.29799679 0.14599003 0.46143404
-0.28766441 0.14622527 0.46303022
-0.27778181 0.14581954 0.46361908
-0.26759773 0.14584704 0.46229494
-0.2575818 0.14595275 0.46281525
-0.24812852 0.14571929 0.46384373
-0.23813957 0.14573303 0.46503282
-0.22786908 0.14580837 0.46610609
-0.21812972 0.14574572 0.46683478
-0.20861277 0.14543483 0.4674333
-0.19998509 0.1474459 0.46818203
-0.32686362 0.15589061 0.45902598
-0.31771111 0.15580349 0.45882034
-0.3074652 0.1558882 0.45905617
-0.29823267 0.15616953 0.46056443
-0.2878648 0.1560116 0.46230984
-0.27795315 0.15541951 0.46403664
-0.26777005 0.15533589 0.46486402
-0.25788814 0.15596031 0.46427017
-0.24846093 0.15597238 0.46447471
-0.23796284 0.15536083 0.46589079
-0.22802123 0.15574649 0.46685302
-0.21938857 0.1557495 0.4680171
-0.19910686 0.15242442 0.46893245
-0.32671764 0.16580643 0.45848873
-0.31774551 0.1655907 0.45885524
-0.30809778 0.16631545 0.458911
-0.29792991 0.166098 0.46018192
-0.28771156 0.16617824 0.46114677
-0.2781136 0.16580629 0.46366796
-0.26804814 0.16576067 0.46537513
-0.25796357 0.16579615 0.46485317
-0.2481879 0.16581054 0.46508861
-0.23780605 0.16575652 0.46505353
-0.2276082 0.16577627 0.46641198
-0.21844213 0.16408689 0.46741977
-0.21249758 0.16327758 0.46778801
-0.3267619 0.17342398 0.45812494
-0.31812003 0.17344029 0.45847017
-0.30789405 0.17349283 0.45884228
-0.29753467 0.17352109 0.45997372
-0.28767347 0.17357917 0.46209407
-0.27820593 0.17374484 0.46231696
-0.26822549 0.17386828 0.46500143
-0.25777259 0.17433742 0.46460444
-0.24799284 0.17438453 0.46521339
-0.23789662 0.17423016 0.46607205
-0.22770742 0.17430495 0.46594527
-0.21922079 0.17589641 0.46655557
-0.21129361 0.1787128 0.4669483
-0.19586407 0.17654485 0.46429959
-0.18778157 0.17584218 0.46560648
-0.18217823 0.17667079 0.46417055
-0.21512359 -0.19063814 0.46928447
-0.20558089 -0.19054508 0.46725288
-0.19699603 -0.19031277 0.4681913
-0.18763891 -0.19008611 0.46923983
-0.17784089 -0.19037847 0.47097704
-0.2338822 -0.18785299 0.46762121
-0.22739574 -0.18577778 0.46871141
-0.21733862 -0.1851919 0.46815908
-0.20637263 -0.1855817 0.46814972
-0.19683202 -0.18408366 0.46699783
-0.18711236 -0.18399139 0.46788362
-0.1780522 -0.18419488 0.47083268
-0.22421846 -0.17731988 0.46833527
-0.21739028 -0.17593142 0.4693518
-0.20510814 -0.17666921 0.4663505
-0.195806 -0.17453946 0.46500009
-0.18702881 -0.17409055 0.46718675
-0.1769083 -0.17487361 0.47071081
-0.1706318 -0.17321841 0.4726457
-0.19546658 -0.16650872 0.45916432
-0.19226274 -0.16589123 0.46329337
-0.18639696 -0.16462323 0.46699569
-0.17711751 -0.1648231 0.46972552
-0.16786866 -0.1636548 0.47127163
-0.15957007 -0.16189887 0.47277588
-0.18849647 -0.15406446 0.45898283
-0.19139624 -0.15469436 0.46034011
-0.18648365 -0.15454985 0.4648768
-0.1767806 -0.15387312 0.46714216
-0.16773292 -0.1553074 0.46923116
-0.15759265 -0.15661301 0.47180113
-0.15125963 -0.15671797 0.47371259
-0.18792942 -0.14346397 0.45843944
-0.19185115 -0.14373843 0.4580389
-0.18627512 -0.14468594 0.4628036
-0.17641969 -0.14458275 0.46616641
-0.16750796 -0.14277488 0.46854991
-0.18778573 -0.13566443 0.46116805
-0.19161892 -0.13425635 0.45755357
-0.18630657 -0.13469689 0.46193194
-0.17668413 -0.13453515 0.4648276
-0.16665457 -0.1342023 0.46783054
-0.19298372 -0.12562384 0.45491683
-0.19122732 -0.12396163 0.45705953
-0.18596768 -0.12385289 0.46084201
-0.1764064 -0.12434926 0.46424043
-0.16680124 -0.12434486 0.46759945
-0.15854613 -0.12259901 0.47001952
-0.13675533 -0.12020912 0.47528955
-0.18764552 -0.11438993 0.4636029
-0.1909633 -0.1143952 0.45697892
-0.18593517 -0.11429957 0.46077192
-0.17646331 -0.1148643 0.46383229
-0.16693647 -0.11498422 0.46673664
-0.15675831 -0.11483693 0.4698045
-0.15040937 -0.11147856 0.47161716
-0.13770652 -0.11737499 0.47456893
-0.18880235 -0.10423388 0.46347466
-0.19153912 -0.10508705 0.45697314
-0.18590319 -0.10508645 0.46045196
-0.17685424 -0.10500394 0.46336821
-0.16718003 -0.10437061 0.46606931
-0.15753315 -0.10425105 0.46863136
-0.14969568 -0.10340752 0.47137764
-0.18977277 -0.093801685 0.46375823
-0.19211598 -0.094353773 0.45716232
-0.18606578 -0.093701735 0.46024165
-0.17670619 -0.094122514 0.4631893
-0.1668912 -0.094112501 0.46604678
-0.15678295 -0.094327465 0.46907419
-0.15020053 -0.097278386 0.47097293
-0.19167313 -0.083772935 0.46296096
-0.19277474 -0.084763855 0.4577736
-0.18602449 -0.084021203 0.46078277
-0.17675562 -0.084484205 0.46341246
-0.16705744 -0.084507324 0.46606919
-0.15643157 -0.084382035 0.46909308
-0.15048683 -0.082657263 0.47088614
-0.19348808 -0.074194953 0.46256426
-0.1930279 -0.074654803 0.45871556
-0.18655962 -0.074860729 0.46124616
-0.17704214 -0.074880704 0.4637557
-0.16685505 -0.074457489 0.46634242
-0.15658447 -0.074637376 0.46921614
-0.15038604 -0.073486663 0.47114989
-0.19876346 -0.061721269 0.45963475
-0.19384038 -0.063562699 0.46046025
-0.18666027 -0.06406337 0.46257117
-0.17727758 -0.06493973 0.46435246
-0.1670168 -0.064107552 0.46683684
-0.15728422 -0.064168371 0.46940997
-0.14724556 -0.064129397 0.4720335
-0.14084417 -0.061677843 0.47375411
-0.28475693 -0.050346103 0.45867065
-0.27807102 -0.049669545 0.45746082
-0.26679802 -0.046683852 0.45543519
-0.25614277 -0.048437506 0.45509553
-0.24719277 -0.051787268 0.45662138
-0.23735341 -0.053102396 0.45809251
-0.22923483 -0.051516 0.45976719
-0.21786433 -0.048647493 0.46123144
-0.20518783 -0.050586633 0.4611606
-0.19545926 -0.053959977 0.46160823
-0.18689093 -0.054295663 0.46353614
-0.17694747 -0.054557879 0.46536046
-0.16689703 -0.053751033 0.46781567
-0.15738393 -0.053726703 0.46986383
-0.14728205 -0.053867977 0.47236425
-0.14066629 -0.054508194 0.47390795
-0.29619822 -0.041212123 0.45954418
-0.28681871 -0.042683009 0.45970356
-0.27755466 -0.043312512 0.45995966
-0.26711679 -0.043046206 0.4590244
-0.25706345 -0.042915866 0.45832667
-0.24787748 -0.044060573 0.45935786
-0.23726802 -0.044372328 0.45931786
-0.22763991 -0.043295514 0.4596763
-0.21755207 -0.043290149 0.4603548
-0.20713232 -0.043523196 0.46137613
-0.19731368 -0.044810869 0.46245149
-0.1872317 -0.045187943 0.46395373
-0.17714962 -0.044995613 0.46592516
-0.1670368 -0.044383287 0.46836418
-0.15748066 -0.044403147 0.47033048
-0.14764552 -0.044313379 0.47249481
-0.13882162 -0.043397654 0.47455865
-0.29653054 -0.035690516 0.46190503
-0.28746891 -0.034831643 0.46447456
-0.27765962 -0.034435071 0.46330172
-0.26728857 -0.034581445 0.46217304
-0.25746453 -0.034810044 0.46199387
-0.24752262 -0.034291666 0.46104008
-0.23735707 -0.034196332 0.46078208
-0.22673653 -0.034102365 0.46097627
-0.21697158 -0.034196228 0.46165526
-0.20774783 -0.034352235 0.46267563
-0.19716369 -0.034348425 0.46358106
-0.18711211 -0.034638867 0.46516052
-0.17720512 -0.034721848 0.46695432
-0.16706087 -0.034713052 0.46879789
-0.15735474 -0.034613878 0.47094482
-0.14789003 -0.034584776 0.47310099
-0.13950534 -0.035552047 0.47475752
-0.28383392 -0.027944714 0.46409434
-0.27774966 -0.028851196 0.46481672
-0.26629907 -0.02650902 0.46308088
-0.2573559 -0.024744561 0.46319136
-0.2471924 -0.0244017 0.46226996
-0.23740441 -0.024238555 0.46233398
-0.22697084 -0.024250802 0.46261072
-0.2171589 -0.024302429 0.4632664
-0.20772614 -0.024245221 0.46406755
-0.19738099 -0.024120683 0.46507961
-0.18765856 -0.024186695 0.46650112
-0.17748268 -0.024341919 0.46800977
-0.16722526 -0.024589533 0.46967736
-0.15731514 -0.024653528 0.47144243
-0.14798671 -0.024045024 0.47331569
-0.14126787 -0.021825237 0.47457415
-0.27342325 -0.012968672 0.46287343
-0.26749149 -0.013566501 0.46332631
-0.25799116 -0.014271224 0.46362743
-0.24731767 -0.014501508 0.4636085
-0.23730722 -0.014533002 0.46377179
-0.22744322 -0.014115155 0.46397367
-0.21767853 -0.014341208 0.46450177
-0.20744367 -0.01422541 0.4652513
-0.19767803 -0.014237492 0.46621805
-0.18799891 -0.014385878 0.46749377
-0.17779291 -0.014664237 0.4687916
-0.16749674 -0.014599761 0.4703339
-0.15732415 -0.014463563 0.47187459
-0.14748168 -0.014777426 0.47354367
-0.13828613 -0.014134414 0.47512466
-0.13020015 -0.011787017 0.47642279
-0.1162525 -0.010950084 0.47834322
-0.26650253 -0.0043636169 0.46423149
-0.25898516 -0.003730021 0.46445855
-0.24718566 -0.0041072862 0.46448061
-0.23736571 -0.0042519569 0.46487352
-0.22753461 -0.0042301663 0.46524793
-0.21747257 -0.0044107032 0.46583274
-0.20759907 -0.0043813232 0.46644217
-0.19774503 -0.0043449909 0.46739307
-0.18798693 -0.0043820906 0.46850169
-0.17797486 -0.0043697637 0.46966541
-0.16782254 -0.0041931034 0.47101784
-0.15750341 -0.0043278658 0.47248778
-0.14766936 -0.0043491405 0.47395739
-0.13787478 -0.0043104631 0.4754127
-0.128839 -0.0043511139 0.47669017
-0.11882629 -0.0057824263 0.47791672
-0.28734535 0.0060946662 0.46333089
-0.27715102 0.0036377618 0.46417475
-0.26730484 0.005167977 0.46446526
-0.25819257 0.0057447096 0.46491209
-0.24757974 0.0058045113 0.46512479
-0.23754436 0.0056931865 0.46572512
-0.22786036 0.0056181592 0.46593627
-0.21787564 0.0055223173 0.46657902
-0.20765223 0.0056257034 0.46739042
-0.19749771 0.0055867508 0.46822459
-0.18803522 0.0057022329 0.46919203
-0.1779321 0.0057860385 0.47027013
-0.1676695 0.0056529255 0.47161373
-0.15762812 0.0059100669 0.47285831
-0.14771108 0.0058057792 0.47419462
-0.13796371 0.0058331722 0.47550708
-0.12908539 0.0059601245 0.47672337
-0.12262683 0.0025069376 0.47747058
-0.26466024 0.011025704 0.46481457
-0.25789365 0.011194828 0.46504
-0.24723892 0.015388615 0.46554807
-0.23776916 0.015729506 0.46614903
-0.22795594 0.01567018 0.46653116
-0.21808158 0.015694128 0.46704352
-0.20814981 0.015626673 0.46779874
-0.19765025 0.015692826 0.46883142
-0.18782961 0.015812317 0.46978649
-0.17810521 0.015873061 0.47081462
-0.16790339 0.015938606 0.47201338
-0.1577445 0.015680296 0.47306755
-0.14764598 0.015919097 0.47415417
-0.13795714 0.015971579 0.47535029
-0.12900427 0.016136862 0.47636655
-0.11688162 0.019663334 0.47674966
-0.11116588 0.019285299 0.47731069
-0.24487445 0.025001774 0.46597904
-0.23797797 0.025405204 0.46637791
-0.22755985 0.025835883 0.46713483
-0.21792527 0.025799362 0.46756589
-0.20817813 0.025764616 0.46822795
-0.19776459 0.025804613 0.46925187
-0.1877376 0.025716694 0.47018912
-0.17797838 0.025843022 0.47108704
-0.16784799 0.025918076 0.47212279
-0.15772915 0.026045781 0.47323948
-0.14782934 0.025867175 0.47423068
-0.13777688 0.026019376 0.47531247
-0.12811768 0.026093258 0.47595704
-0.11834474 0.025873682 0.47660252
-0.11108052 0.023133431 0.47728273
-0.25648952 0.037905831 0.46547574
-0.24757229 0.035760906 0.46601036
-0.23798332 0.035619397 0.46655944
-0.22763045 0.035470378 0.46747059
-0.21764518 0.03588162 0.46807259
-0.20820963 0.035846088 0.46837923
-0.19766398 0.035468582 0.46932203
-0.18778083 0.035883516 0.4703714
-0.17794411 0.035823025 0.47124019
-0.16811703 0.035902213 0.47211048
-0.15802301 0.036089107 0.47306365
-0.14796543 0.035969429 0.47423804
-0.1378825 0.036020357 0.47511622
-0.12776302 0.036119465 0.47550702
-0.11796714 0.036483876 0.47620448
-0.11107744 0.037959598 0.47601619
-0.25726414 0.04399607 0.46537456
-0.24810705 0.04413563 0.46605843
-0.23813987 0.045504522 0.46664187
-0.22784239 0.045467075 0.46756184
-0.21777701 0.045418747 0.46817875
-0.20806605 0.045534514 0.46851721
-0.19790864 0.045759842 0.46947917
-0.1877448 0.045769643 0.47041723
-0.17764033 0.045812685 0.47124138
-0.16783905 0.045836713 0.47209167
-0.15766926 0.046125121 0.4730908
-0.1475862 0.046167582 0.47410962
-0.137665 0.046211202 0.47508404
-0.12772782 0.046260409 0.47582039
-0.11786333 0.046169817 0.47576594
-0.11194035 0.044103075 0.47585163
-0.24519421 0.057999581 0.46630484
-0.23684607 0.055662598 0.46682957
-0.22792454 0.055724826 0.46745533
-0.21801421 0.055617824 0.46792796
-0.20785455 0.055643681 0.46855432
-0.19800131 0.055388495 0.46949473
-0.18783265 0.05570893 0.47037873
-0.17754588 0.055786662 0.47118783
-0.16772103 0.055853482 0.47208288
-0.15808611 0.055991862 0.47300377
-0.14789233 0.056132901 0.47386521
-0.13770758 0.056220535 0.47468174
-0.12781911 0.056346297 0.47508994
-0.11763876 0.055594947 0.47506145
-0.10904174 0.055790372 0.47402751
-0.24709713 0.065304138 0.46613106
-0.23806465 0.065460935 0.46672675
-0.22801331 0.065396175 0.46743849
-0.21810955 0.065591238 0.46790791
-0.20782889 0.065533727 0.46852654
-0.19803463 0.065808237 0.46951649
-0.18777625 0.06565544 0.47030976
-0.1777894 0.06590984 0.47095907
-0.16771749 0.065824449 0.47196025
-0.1576736 0.066107661 0.47294
-0.14796251 0.066035517 0.47363988
-0.13838936 0.066281915 0.47433454
-0.12812413 0.065972582 0.47433278
-0.11760786 0.065208137 0.47373787
-0.10954463 0.066471599 0.47337225
-0.24620868 0.070967324 0.46603042
-0.2380463 0.07492096 0.46665156
-0.22794384 0.075505465 0.46740153
-0.21810375 0.075563975 0.46792763
-0.20782031 0.075472176 0.46855325
-0.19774625 0.07566344 0.46946067
-0.18762548 0.075812511 0.47022599
-0.1778266 0.075886458 0.47078055
-0.16784939 0.075927295 0.47162721
-0.15809144 0.076048128 0.47236669
-0.14825587 0.076148316 0.47304836
-0.13837898 0.076253809 0.47415704
-0.12802079 0.075756475 0.47486866
-0.11754783 0.075529411 0.47507688
-0.10891625 0.075863235 0.47437006
-0.24464518 0.082936369 0.46613261
-0.24101536 0.082709759 0.46639565
-0.22587849 0.084929504 0.46741739
-0.21805461 0.085583635 0.46794188
-0.20789537 0.085416295 0.46850136
-0.19789919 0.085437588 0.46935126
-0.18805464 0.08556664 0.47004926
-0.1779398 0.085846655 0.47063386
-0.16757892 0.085819624 0.47139212
-0.15786333 0.085970126 0.47214887
-0.14790612 0.086005121 0.47298807
-0.13836122 0.08618027 0.47471371
-0.12823369 0.085561946 0.47648695
-0.11804728 0.085672617 0.47578314
-0.11013258 0.086189352 0.47580314
-0.22416568 0.093098529 0.46737817
-0.21804543 0.095258735 0.46768358
-0.20783287 0.094786286 0.46836007
-0.1978873 0.096018635 0.46918902
-0.18825901 0.095630184 0.46984938
-0.17788449 0.095602199 0.47045964
-0.16756676 0.095820867 0.47128266
-0.15793905 0.096034355 0.47193664
-0.14809199 0.096367307 0.47277719
-0.13809681 0.096211314 0.47550821
-0.12796907 0.09577439 0.47681215
-0.11788178 0.095767796 0.47338107
-0.10913229 0.09538725 0.47259849
-0.21686135 0.10679913 0.46777502
-0.2079608 0.10733087 0.46826863
-0.19811694 0.1062602 0.46910846
-0.18805099 0.1059982 0.46972439
-0.17834744 0.10560907 0.47017083
-0.16796127 0.10562012 0.47117603
-0.15774125 0.10593565 0.47184974
-0.14775231 0.10591697 0.47262874
-0.13845751 0.10601094 0.47548544
-0.12791875 0.10573653 0.47477701
-0.11761727 0.10538506 0.47233677
-0.10983488 0.10359584 0.47105762
-0.22440071 0.12006078 0.46755978
-0.21704575 0.11820075 0.46805131
-0.20827238 0.11631256 0.46855813
-0.19813561 0.11622965 0.4691416
-0.18785352 0.11580388 0.46958184
-0.17793664 0.11582134 0.47013944
-0.16840285 0.11573079 0.47102046
-0.15811139 0.11576224 0.47182861
-0.14774975 0.11587684 0.47262439
-0.13836312 0.11599927 0.47470197
-0.12808253 0.11552312 0.47418228
-0.11732272 0.11551642 0.47237274
-0.10924955 0.11611538 0.4725405
-0.22410354 0.12486246 0.46672568
-0.21805306 0.12624167 0.46716607
-0.20792268 0.12649293 0.46814933
-0.19782697 0.12638627 0.46880791
-0.18835618 0.12569149 0.46963719
-0.17827164 0.1259412 0.47021717
-0.16776726 0.12580566 0.47113246
-0.1578318 0.12589888 0.4718788
-0.14793485 0.12606542 0.47275138
-0.13801727 0.12614155 0.47336483
-0.12838815 0.1256571 0.47350007
-0.11784948 0.12572938 0.47365099
-0.10863998 0.12559594 0.4736093
-0.21668723 0.13237564 0.4660753
-0.20715113 0.13504274 0.46703136
-0.19788769 0.13636667 0.46813002
-0.18770212 0.13577171 0.46916685
-0.17786378 0.13565828 0.46977466
-0.16793323 0.13557889 0.47024509
-0.15802537 0.13586777 0.47076675
-0.14811681 0.13595873 0.47181445
-0.13805166 0.13631128 0.47245377
-0.12813012 0.13610268 0.4735831
-0.11786643 0.13583669 0.47460237
-0.10956134 0.13630444 0.47471842
-0.20661403 0.1466902 0.46803492
-0.19691527 0.14520518 0.46790132
-0.1876464 0.14581622 0.46849772
-0.1782015 0.14582805 0.46961859
-0.16825843 0.1457752 0.47032872
-0.15793352 0.1455148 0.47060859
-0.14791396 0.14579935 0.47152185
-0.13789393 0.14615832 0.47236851
-0.12813409 0.14628871 0.47398016
-0.11781302 0.14601472 0.47488022
-0.10894293 0.14524241 0.47484919
-0.21509857 0.15641896 0.46835595
-0.20847043 0.15602933 0.46846226
-0.19766898 0.15653971 0.46936414
-0.18783268 0.15615658 0.46946752
-0.17784247 0.15573202 0.46971744
-0.16779003 0.15567122 0.47027212
-0.15758409 0.1558212 0.47023022
-0.14753428 0.1555106 0.47153273
-0.13789079 0.15607482 0.47241035
-0.12825426 0.1559356 0.47406361
-0.11776385 0.15601258 0.47440535
-0.10946404 0.15671089 0.47351897
-0.21667759 0.16886051 0.46675998
-0.20788303 0.16579464 0.46853217
-0.19794661 0.16624311 0.46813357
-0.18767722 0.1658624 0.46625867
-0.17767759 0.16584076 0.46837765
-0.16767989 0.16549708 0.46873209
-0.15818381 0.16563264 0.46917281
-0.14797406 0.1655519 0.47113732
-0.13786751 0.16590138 0.47292408
-0.12813197 0.16567914 0.47336477
-0.11789443 0.16562824 0.47342184
-0.10919537 0.16619015 0.47298282
-0.21613762 0.17363976 0.46669683
-0.2079692 0.1752522 0.46574345
-0.19899797 0.17359832 0.464158
-0.18723619 0.1720566 0.46566784
-0.17729408 0.17462331 0.46442387
-0.16776308 0.17534092 0.46706396
-0.15807514 0.17525424 0.46890515
-0.14788143 0.17539474 0.47178409
-0.1377786 0.17605172 0.47218272
-0.12785007 0.17603292 0.47289801
-0.1180982 0.17563957 0.47237366
-0.1095908 0.17526163 0.47309336
-0.115856 0.18114223 0.47291216
-0.10979386 0.18133959 0.47301176
-0.17245276 -0.19094315 0.46969455
-0.16656289 -0.19189817 0.47301379
-0.15690109 -0.19129419 0.47418636
-0.14782527 -0.19121386 0.47667015
-0.13806939 -0.1912242 0.47940287
-0.12801069 -0.19107413 0.48084405
-0.11803454 -0.19143412 0.48204574
-0.10804877 -0.19151966 0.48363224
-0.099187262 -0.19230606 0.4868046
-0.17261834 -0.1863167 0.47035939
-0.16676028 -0.1845717 0.47157717
-0.15775941 -0.18461658 0.47381958
-0.14759725 -0.18445936 0.47632995
-0.13820601 -0.18444201 0.47841308
-0.12797716 -0.18399878 0.48016885
-0.11764713 -0.18418191 0.48057309
-0.10813007 -0.1841674 0.48339331
-0.099213891 -0.18396333 0.48557097
-0.093009703 -0.18001176 0.48787844
-0.16634257 -0.17509729 0.47115281
-0.15761845 -0.17495281 0.47325501
-0.14770336 -0.17429151 0.47478452
-0.13763495 -0.17402796 0.4771367
-0.12764086 -0.17395951 0.47847462
-0.11773404 -0.17413759 0.47999549
-0.10780451 -0.17441045 0.48210225
-0.09826947 -0.17359225 0.4858034
-0.088271663 -0.17366533 0.48716599
-0.079159237 -0.17219578 0.4875358
-0.069060206 -0.16982415 0.48915407
-0.056715779 -0.17110935 0.48830658
-0.052493744 -0.17090383 0.49026629
-0.16468015 -0.16858949 0.47082126
-0.15637694 -0.16593267 0.47213417
-0.14738454 -0.16440478 0.47344229
-0.13773647 -0.16417655 0.47582236
-0.12758228 -0.16402647 0.47825173
-0.11764956 -0.16459274 0.48011419
-0.10781995 -0.16415991 0.48197186
-0.098132946 -0.16437772 0.48314074
-0.087825872 -0.16428767 0.48545
-0.077938534 -0.1637551 0.48682135
-0.067800984 -0.16389599 0.48734167
-0.059113096 -0.16492681 0.48693472
-0.052650191 -0.16811682 0.48742869
-0.16566084 -0.15083246 0.46624586
-0.15751299 -0.1512876 0.46828046
-0.14712326 -0.15420157 0.47186759
-0.13750945 -0.15430945 0.47466117
-0.12734585 -0.15406688 0.47759321
-0.11766174 -0.15431999 0.47991845
-0.10783888 -0.1542097 0.48176083
-0.097870536 -0.15395623 0.48342294
-0.087946996 -0.15390091 0.48487982
-0.077567309 -0.15423152 0.48624995
-0.067733191 -0.15412717 0.48651946
-0.061739448 -0.15828158 0.48656997
-0.16485365 -0.1465753 0.46641719
-0.15763755 -0.14394987 0.46801898
-0.14740954 -0.14412366 0.47074002
-0.13732557 -0.14392889 0.47357669
-0.12768836 -0.14391042 0.47635886
-0.11761711 -0.14398374 0.47888848
-0.10789032 -0.14426041 0.48119619
-0.097871475 -0.14438152 0.48281568
-0.087644532 -0.14413849 0.48444718
-0.077792175 -0.14435288 0.48565608
-0.06862548 -0.14408962 0.48667592
-0.16206032 -0.13169298 0.46610668
-0.15718563 -0.13433243 0.46761265
-0.14761339 -0.13438857 0.47029853
-0.13761634 -0.13455485 0.47345945
-0.12736195 -0.1342333 0.47624496
-0.11770137 -0.13396914 0.47851384
-0.10772744 -0.13408607 0.48066542
-0.097727053 -0.13431829 0.48242825
-0.087804146 -0.13420224 0.48385268
-0.077449188 -0.13439934 0.48516008
-0.069428176 -0.13497309 0.48617172
-0.16243041 -0.12788239 0.46567425
-0.15644431 -0.12662512 0.46766186
-0.14798288 -0.12468585 0.46961811
-0.13736454 -0.12516977 0.47271481
-0.12725116 -0.12434994 0.47566286
-0.11745203 -0.12425169 0.47822851
-0.10772897 -0.12388656 0.48027915
-0.097723253 -0.12409035 0.48197907
-0.087572984 -0.1240247 0.48354602
-0.077608995 -0.12434522 0.48503232
-0.070335403 -0.12275163 0.48597428
-0.15254223 -0.11966526 0.46827108
-0.14722154 -0.11438496 0.46922481
-0.13710967 -0.11320171 0.47210366
-0.12702206 -0.11412533 0.47519502
-0.11762478 -0.11426525 0.47767162
-0.10758288 -0.11398897 0.47996426
-0.097564757 -0.1141117 0.48161539
-0.087378912 -0.11395743 0.48321962
-0.077559255 -0.11407913 0.48471561
-0.068189688 -0.11401641 0.48600984
-0.144548 -0.10399313 0.46986538
-0.13716087 -0.10351662 0.47189096
-0.12725116 -0.10389581 0.47481477
-0.1174933 -0.10423182 0.477413
-0.1075244 -0.10429085 0.47972968
-0.097526617 -0.10439995 0.48140422
-0.087801687 -0.10436376 0.48293909
-0.077661179 -0.10393444 0.48449957
-0.069783092 -0.10610199 0.48565489
-0.15220132 -0.090999685 0.46770638
-0.14650723 -0.093717128 0.46912742
-0.13706547 -0.093777627 0.47189164
-0.12745269 -0.093774423 0.47440875
-0.1174137 -0.093900017 0.47718489
-0.10746541 -0.09413638 0.47948235
-0.09770634 -0.09441644 0.48109934
-0.08758904 -0.094487846 0.48260993
-0.077669106 -0.094337381 0.48409301
-0.067911901 -0.092198968 0.48539287
-0.058995709 -0.091068901 0.48648143
-0.14599027 -0.084922321 0.46930191
-0.13726448 -0.084079556 0.47174731
-0.1274111 -0.083811119 0.47425109
-0.11717602 -0.08396817 0.47700495
-0.10740954 -0.083900623 0.4792192
-0.097577907 -0.08421161 0.48081118
-0.087425835 -0.084070332 0.48234758
-0.077912688 -0.084093556 0.48377141
-0.068558931 -0.083993793 0.48504588
-0.058303922 -0.08399903 0.48641762
-0.05261204 -0.084782399 0.48708451
-0.14578351 -0.074862659 0.46973544
-0.13719687 -0.074704371 0.4718605
-0.12762256 -0.074405402 0.4743304
-0.1175658 -0.074271001 0.47681612
-0.10747904 -0.073778577 0.47900158
-0.097544312 -0.073794134 0.48057714
-0.087289691 -0.073654577 0.48211569
-0.07788869 -0.073913492 0.48352927
-0.068413943 -0.073998161 0.48488802
-0.058878213 -0.07474868 0.48621577
-0.14279109 -0.069232933 0.47054985
-0.13645431 -0.065065995 0.47251371
-0.1275131 -0.064837173 0.47456151
-0.1176293 -0.064400971 0.4769364
-0.10744931 -0.064079046 0.47892794
-0.097409323 -0.064045645 0.48047459
-0.087323479 -0.063913576 0.48193389
-0.077546515 -0.063538596 0.48328066
-0.067684852 -0.063855745 0.48467371
-0.061150812 -0.065312237 0.48568547
-0.1360192 -0.054385446 0.4730404
-0.12739059 -0.054369804 0.4748472
-0.11761184 -0.054206345 0.47709909
-0.10756978 -0.054193534 0.47881198
-0.097288609 -0.054326821 0.48040766
-0.087441005 -0.05420113 0.48177385
-0.077587463 -0.054160114 0.48315635
-0.067913525 -0.054083195 0.48454285
-0.058948591 -0.053367868 0.48579797
-0.050249901 -0.050348863 0.4867399
-0.13393903 -0.044802863 0.47383407
-0.12722556 -0.043901671 0.47529033
-0.11739296 -0.043953925 0.47724363
-0.10759963 -0.043814931 0.4787457
-0.09767741 -0.044202153 0.48021501
-0.087392598 -0.044304449 0.48166871
-0.077887639 -0.044337597 0.48292488
-0.068277895 -0.04427908 0.48420489
-0.058176082 -0.044205341 0.48549631
-0.048892077 -0.044082038 0.48666334
-0.14409709 -0.029780895 0.47265509
-0.13602744 -0.03229009 0.47401044
-0.12722945 -0.033625558 0.47555852
-0.11734919 -0.033729896 0.47724849
-0.10750955 -0.033922423 0.47867438
-0.097773947 -0.033882339 0.48007184
-0.087687701 -0.033899616 0.4814553
-0.078001216 -0.033859406 0.48270735
-0.068242788 -0.034008835 0.48392707
-0.058205254 -0.033985917 0.48520982
-0.048031256 -0.034106914 0.48648676
-0.0407524 -0.032189365 0.48707816
-0.14432444 -0.026692919 0.47253847
-0.13691755 -0.024428101 0.47403339
-0.1274858 -0.024209201 0.47566715
-0.11735672 -0.024166467 0.47722372
-0.10777248 -0.024156017 0.47853652
-0.098286793 -0.024122486 0.47986493
-0.08825548 -0.024155458 0.48105371
-0.078139342 -0.023840517 0.48235694
-0.06819123 -0.023719249 0.48356184
-0.058078133 -0.023792615 0.48482326
-0.047886811 -0.023868751 0.48601434
-0.040049016 -0.024080675 0.4868975
-0.13423069 -0.018464798 0.47456247
-0.12660754 -0.015686404 0.4757973
-0.11786219 -0.015570977 0.47701433
-0.10770706 -0.014320287 0.47851276
-0.097570114 -0.014440625 0.47972447
-0.087610461 -0.01452904 0.48097086
-0.077969767 -0.014279108 0.48201555
-0.068124063 -0.014008404 0.4830775
-0.057999335 -0.014056082 0.4841592
-0.047805946 -0.01413684 0.48511764
-0.038776293 -0.01315337 0.48583472
-0.031809282 -0.010160479 0.48642191
-0.12439414 -0.0041027074 0.47630292
-0.11652963 -0.0022497186 0.47744811
-0.10766917 -0.0045289006 0.4782421
-0.097483508 -0.0042359959 0.47911075
-0.087298207 -0.0044959299 0.48021755
-0.077823833 -0.0042496324 0.48130986
-0.068104185 -0.0043497053 0.48207775
-0.057951707 -0.0043195058 0.48384336
-0.047799923 -0.004319415 0.48494279
-0.03877883 -0.0051255366 0.48535174
-0.031038325 -0.0063667735 0.4867529
-0.12385267 0.0058625932 0.47637698
-0.11719424 0.0059789591 0.47709766
-0.10729612 0.005958776 0.47765484
-0.097827584 0.005721278 0.47863209
-0.08811342 0.0058958922 0.47932017
-0.078089289 0.0058409525 0.47980779
-0.067875244 0.0058401674 0.48082265
-0.057631671 0.0059438981 0.4823288
-0.048730034 0.00441569 0.4850603
-0.041032646 0.0013715586 0.48607212
-0.1238772 0.015233034 0.47580299
-0.11798269 0.014579452 0.47590747
-0.10707492 0.015312674 0.47688374
-0.097451441 0.016088404 0.4777464
-0.0873916 0.016171938 0.47817531
-0.077653505 0.015881408 0.47827083
-0.067695431 0.015923774 0.47848237
-0.05696775 0.015896697 0.48028079
-0.048857898 0.017677283 0.48186997
-0.033745088 0.020434922 0.48329315
-0.027591646 0.019389609 0.48358962
-0.021221131 0.018221406 0.48349229
-0.12485764 0.02157313 0.47557294
-0.11554535 0.030033685 0.47618222
-0.10744571 0.026878186 0.47677222
-0.097868472 0.026058719 0.47633463
-0.087850638 0.025623869 0.47567785
-0.077799149 0.025819153 0.47552153
-0.067352399 0.025537001 0.47609243
-0.056457222 0.025392747 0.47786391
-0.04597744 0.024730345 0.47801507
-0.037830804 0.025823276 0.48078468
-0.028271528 0.024228331 0.48500061
-0.021434022 0.022611685 0.48327988
-0.1157596 0.031843554 0.47584552
-0.1075898 0.034826815 0.47577307
-0.099003911 0.033253212 0.47599432
-0.08685445 0.03210498 0.47418565
-0.078211337 0.033047367 0.47339121
-0.067380823 0.03192617 0.47440439
-0.055411726 0.032005068 0.47687274
-0.046570409 0.031649482 0.47796899
-0.027074995 0.034616392 0.48020294
-0.022265444 0.034747675 0.48136458
-0.109414 0.045576684 0.47479457
-0.10713536 0.050689477 0.47363859
-0.11424907 0.089918494 0.47422904
-0.11214493 0.090003625 0.47157109
-0.11410483 0.091298863 0.47299093
0.055884127 0.18716854 0.48444921
0.057602689 0.18715069 0.48431829
-0.093009293 -0.1919193 0.48249426
-0.087651581 -0.19224018 0.48439255
-0.07797014 -0.19205262 0.48548844
-0.067733303 -0.19232056 0.48822859
-0.057490941 -0.19228913 0.49052048
-0.047943406 -0.19250154 0.49228641
-0.038193643 -0.19247229 0.49339515
-0.027550478 -0.19315417 0.4935388
-0.017800462 -0.19308926 0.49375436
-0.0079408223 -0.19280189 0.49490803
0.0019412771 -0.19317849 0.49506736
0.011729401 -0.1934302 0.49598944
0.021067766 -0.19366993 0.4976503
0.02758687 -0.19752371 0.49723253
0.045363188 -0.192037 0.49778771
-0.094018817 -0.18558018 0.48717213
-0.087698139 -0.1846216 0.48640022
-0.078032166 -0.18421814 0.48636144
-0.067785919 -0.18446812 0.48837048
-0.057770055 -0.18409203 0.49077901
-0.048066482 -0.1840605 0.4922494
-0.038178783 -0.18373752 0.49319881
-0.027845839 -0.18379955 0.4933711
-0.017802728 -0.18407124 0.4937602
-0.007811653 -0.18397374 0.49388045
0.00197945 -0.18386649 0.49440449
0.011741142 -0.18399604 0.49570614
0.021378595 -0.18403023 0.49776849
0.028830839 -0.18208399 0.49807107
0.060710117 -0.17965081 0.49582857
-0.08611533 -0.17818543 0.48816389
-0.076415569 -0.17604586 0.48901433
-0.067617185 -0.17469057 0.48990124
-0.058526389 -0.17529359 0.4910332
-0.04808116 -0.17408274 0.49162772
-0.038142227 -0.17372122 0.49163878
-0.028141389 -0.17405847 0.49277934
-0.018161811 -0.17403162 0.4932707
-0.0080236038 -0.1740519 0.49353796
0.001950261 -0.17378406 0.49419218
0.011819399 -0.17410968 0.49512002
0.021993393 -0.17462765 0.49530977
0.029029768 -0.17335698 0.49640715
0.061858136 -0.17672062 0.49648353
-0.0846086 -0.16345397 0.48518685
-0.054846469 -0.16133054 0.48605606
-0.047743242 -0.16378759 0.48693243
-0.037964106 -0.16397592 0.48963946
-0.028062241 -0.16424498 0.49148172
-0.018477308 -0.164395 0.49228674
-0.0078873057 -0.16433401 0.4930414
0.0020674116 -0.16403179 0.49378482
0.011975969 -0.16412537 0.49486107
0.02034956 -0.16471739 0.49561262
0.032331657 -0.16344631 0.49574277
0.041993044 -0.16200604 0.49669683
0.047136527 -0.16094637 0.49757317
-0.062709339 -0.15257908 0.48658025
-0.057049155 -0.15400887 0.48696417
-0.047575444 -0.15423341 0.48849279
-0.037661817 -0.15391718 0.48964611
-0.028099932 -0.15394972 0.49083626
-0.018325197 -0.15412806 0.49213117
-0.0079108961 -0.15431738 0.49304911
0.0018394975 -0.15426315 0.49388549
0.01178627 -0.15440245 0.49538705
0.021990221 -0.15387771 0.49635282
0.03158769 -0.15361492 0.4960866
0.042322129 -0.15366395 0.49670455
0.047680236 -0.15345339 0.49842563
-0.063163027 -0.14347117 0.48680636
-0.057568107 -0.14420049 0.48747292
-0.048103806 -0.14402476 0.48862934
-0.038039353 -0.14413594 0.48957974
-0.028228076 -0.14406911 0.49062529
-0.018316574 -0.14399259 0.49165842
-0.007828379 -0.14411028 0.49272761
0.0019552552 -0.14401031 0.49364629
0.011850427 -0.14423648 0.49458468
0.02160015 -0.14421211 0.49588072
0.032044776 -0.14405881 0.49633682
0.042243972 -0.14403321 0.49588558
0.049524959 -0.14370289 0.50013614
-0.06470304 -0.13335684 0.48625147
-0.057394091 -0.13383953 0.4871988
-0.047768887 -0.13397768 0.48842096
-0.037901372 -0.13419436 0.48948991
-0.028112205 -0.13412771 0.49047264
-0.018291585 -0.13417943 0.4913761
-0.0080067171 -0.13431028 0.49248564
0.0020635449 -0.13440859 0.49342218
0.011986407 -0.13420764 0.49436477
0.021690549 -0.13396086 0.49577674
0.031772975 -0.13415372 0.49609154
0.042641919 -0.13421005 0.49564201
0.050791055 -0.13391857 0.49842316
-0.06582094 -0.12470628 0.48596966
-0.057647377 -0.12418548 0.48699191
-0.047865674 -0.12391498 0.4882299
-0.037844576 -0.12420239 0.48932928
-0.028086821 -0.124207 0.49027196
-0.018221674 -0.12391797 0.49122635
-0.0078806607 -0.12395859 0.49221835
0.0019550694 -0.12407573 0.49313128
0.011709432 -0.12402141 0.4939431
0.021627177 -0.12387244 0.49550557
0.031980086 -0.12396643 0.49595442
0.042407293 -0.12396371 0.49505776
0.052094303 -0.12377717 0.4984591
0.05881324 -0.12365011 0.49923825
-0.063245691 -0.11328511 0.48603964
-0.057778969 -0.1137685 0.48662484
-0.048096862 -0.11385419 0.4878253
-0.037815329 -0.11416233 0.48903456
-0.027990015 -0.11444183 0.49007693
-0.018268246 -0.11397372 0.49100429
-0.007896767 -0.11390477 0.49193713
0.0019516278 -0.1141657 0.49292234
0.01196133 -0.11415818 0.49391261
0.021801719 -0.1139402 0.49501541
0.031849153 -0.11391126 0.49552172
0.042387675 -0.11385918 0.49534917
0.052004889 -0.11376414 0.49822178
0.058329552 -0.11520829 0.49900669
-0.065832093 -0.1031817 0.48544881
-0.057823561 -0.10418458 0.48633766
-0.048052039 -0.10374168 0.48762339
-0.037695114 -0.10384315 0.48880017
-0.02806261 -0.1039653 0.48979083
-0.018261179 -0.10402744 0.49074477
-0.0078563215 -0.1042119 0.49181926
0.001983362 -0.10436577 0.49283165
0.011766423 -0.1043707 0.49356398
0.022370206 -0.10406567 0.4944236
0.032371257 -0.10426888 0.49504
0.042330574 -0.10435873 0.49538451
0.052079529 -0.10406851 0.49774307
0.058836766 -0.10320561 0.4995833
-0.066493452 -0.097482324 0.48513079
-0.05708117 -0.096344568 0.48615724
-0.047975358 -0.094121762 0.48734409
-0.037686013 -0.094106629 0.48851615
-0.028168503 -0.094001822 0.48946556
-0.018253231 -0.094132222 0.49040094
-0.0077439039 -0.093967222 0.4915944
0.0020788407 -0.094015069 0.49257743
0.011963525 -0.09414874 0.49326286
0.022231154 -0.094168253 0.49389666
0.032144748 -0.094293535 0.49466255
0.042281281 -0.094347216 0.49536559
0.051865786 -0.094208628 0.49744239
0.05889006 -0.093944401 0.49964809
-0.047858182 -0.083918445 0.4871555
-0.037843566 -0.08408533 0.48822758
-0.027946869 -0.084110066 0.48920619
-0.018240627 -0.084238276 0.49016789
-0.007959459 -0.084079556 0.49133217
0.0020981794 -0.084113978 0.49235347
0.011970478 -0.084274076 0.49281713
0.022428902 -0.084283136 0.49350357
0.032432619 -0.083866037 0.49431565
0.042288151 -0.083838873 0.49522063
0.052031655 -0.083920203 0.49749446
0.058504481 -0.084209606 0.50145507
-0.054247212 -0.072046205 0.48608482
-0.047768194 -0.073673703 0.48676458
-0.037739452 -0.073632427 0.48786613
-0.02800785 -0.073737927 0.48888925
-0.018196432 -0.073889062 0.48991656
-0.0078227734 -0.07395082 0.49105138
0.002081932 -0.074171782 0.49201316
0.011957762 -0.074283488 0.49272341
0.022425186 -0.074349426 0.49322966
0.03226684 -0.073878378 0.49398109
0.042223901 -0.073826991 0.49502692
0.051674988 -0.073859587 0.49836856
0.05852627 -0.074357346 0.49940932
-0.056366146 -0.064009547 0.48549047
-0.0480868 -0.064117655 0.48642424
-0.037704669 -0.06396284 0.48758438
-0.027992355 -0.063935779 0.48857558
-0.018201225 -0.064037777 0.48957682
-0.0077402499 -0.064199053 0.49072799
0.0021268497 -0.064355999 0.49168232
0.01207234 -0.064264916 0.4922837
0.022491781 -0.064020291 0.49300277
0.03233999 -0.063894145 0.49374765
0.042300113 -0.06398204 0.49486738
0.051964145 -0.063908041 0.49678892
0.059599608 -0.063926183 0.49826422
-0.055245705 -0.057166446 0.48565555
-0.047322366 -0.054992627 0.48632827
-0.03764743 -0.054170605 0.48729762
-0.027972234 -0.054184962 0.48828444
-0.018201346 -0.054132789 0.48923483
-0.0078088692 -0.054210927 0.49039498
0.0020713664 -0.054367237 0.4913933
0.011832546 -0.054331951 0.4920398
0.02232291 -0.054017916 0.49241114
0.032224748 -0.053846184 0.49374649
0.042252924 -0.054009818 0.49470958
0.052084737 -0.053971432 0.49606389
0.059941966 -0.053661413 0.49746919
-0.043604966 -0.0438492 0.48643214
-0.037556734 -0.044264164 0.48700652
-0.027922193 -0.044318084 0.48795107
-0.018135324 -0.044207007 0.48887679
-0.0077645881 -0.0437891 0.48995069
0.0020444142 -0.043842886 0.49105918
0.011955268 -0.043988157 0.49168766
0.022339845 -0.043915946 0.49212947
0.032180004 -0.04394367 0.49366963
0.042194366 -0.044036373 0.49432141
0.051871348 -0.044082526 0.49664801
0.059429236 -0.04352963 0.49881139
-0.043214295 -0.039005041 0.48620817
-0.036399189 -0.035182316 0.4867821
-0.027832009 -0.034426432 0.48771682
-0.018193623 -0.034394231 0.48862496
-0.0078506898 -0.033990361 0.48947936
0.0020377301 -0.033958901 0.49064794
0.011917046 -0.034034297 0.49141708
0.02231368 -0.03401158 0.49223754
0.032238889 -0.034083359 0.49342033
0.042177673 -0.03412639 0.49409699
0.051741254 -0.034102842 0.49652225
0.059662092 -0.034585323 0.49925348
-0.03478504 -0.023770519 0.48656544
-0.027786093 -0.024047555 0.48739889
-0.01809752 -0.024128735 0.48828608
-0.0078047961 -0.024084447 0.48911563
0.0019936997 -0.024056623 0.49031007
0.011851889 -0.024106802 0.49139032
0.022348307 -0.024154713 0.4922573
0.032315418 -0.024204565 0.49315283
0.042220801 -0.024228739 0.49340358
0.051880073 -0.024131574 0.49558264
0.060424216 -0.023780111 0.49791011
-0.035031654 -0.016392108 0.48575595
-0.027589869 -0.014391372 0.48672837
-0.018078722 -0.014279681 0.48773491
-0.0077902405 -0.014231171 0.48883086
0.0020616043 -0.014244363 0.48986134
0.011938019 -0.014276829 0.49090344
0.022473142 -0.014318002 0.49197966
0.032263495 -0.014303018 0.49282691
0.042271167 -0.014389929 0.49230704
0.05200861 -0.014254443 0.49372
0.060321148 -0.014261657 0.49492282
-0.026201148 -0.0046459604 0.48638406
-0.018054742 -0.0042670467 0.48724583
-0.0077905045 -0.0043414086 0.48797402
0.0020978712 -0.0044124909 0.48900238
0.011916991 -0.0044503226 0.48972601
0.022374019 -0.0044516786 0.49101767
0.032332972 -0.0045190351 0.49158764
0.042212099 -0.0044933213 0.49172086
0.052009504 -0.0044155377 0.49258804
0.060646299 -0.0047332733 0.49343506
-0.047168735 0.0080434456 0.48403436
-0.0230095 0.0016295215 0.48559472
-0.016444398 0.0055607795 0.48531324
-0.0077844975 0.0060348273 0.48655289
0.0020495728 0.0060441261 0.48784021
0.011878911 0.0059821205 0.4884305
0.022330139 0.0059925043 0.48985162
0.032241866 0.0060059051 0.49133328
0.042232763 0.0059455093 0.49174228
0.052051991 0.0060474356 0.49274135
0.060468379 0.0067129475 0.49441653
-0.045882221 0.014509896 0.48036775
-0.041046623 0.017458634 0.48013198
-0.015861735 0.014352236 0.48257536
-0.0069771046 0.015190581 0.48440653
0.0020842929 0.015744453 0.48602796
0.011952369 0.01583831 0.48749632
0.022378676 0.015924595 0.48917842
0.032144774 0.015877927 0.49020803
0.042064898 0.015906066 0.49150592
0.051863804 0.015924873 0.49287152
0.060925379 0.015919382 0.49402738
-0.037438016 0.025527183 0.48018757
-0.026730346 0.029325066 0.48258591
-0.019369129 0.027414303 0.48395815
-0.0048065521 0.025293473 0.4823603
0.0022243981 0.025389666 0.48404804
0.012115125 0.025608111 0.48612851
0.022504488 0.025859658 0.48898613
0.032307491 0.025911374 0.4905439
0.042192854 0.02606556 0.49130759
0.052032541 0.025839468 0.49157864
0.061392136 0.02587417 0.49146238
-0.042027708 0.032110695 0.47747779
-0.037495095 0.033930402 0.4802402
-0.02856417 0.03305025 0.47965795
-0.019184252 0.033226009 0.481042
-0.0039725816 0.031646378 0.48076627
0.0027748584 0.032256003 0.48240748
0.012231323 0.033007171 0.48442703
0.021821024 0.032741413 0.48793891
0.033367194 0.035853624 0.48996958
0.042015266 0.035920601 0.48871961
0.051718153 0.035929605 0.48812613
0.061098613 0.035689734 0.49028063
0.03462803 0.045529265 0.48781735
0.041439869 0.045615457 0.48673847
0.051808674 0.045873947 0.48808122
0.060767621 0.045281895 0.48995018
0.033817343 0.054776896 0.48548126
0.041830741 0.055717506 0.48592627
0.051743463 0.055934884 0.48688361
0.061316129 0.056184404 0.49138775
0.034658734 0.064038932 0.48396733
0.04196034 0.064867407 0.4844864
0.052089255 0.065599859 0.48743275
0.06148418 0.066005498 0.49003953
0.035343073 0.07498017 0.48294353
0.041988775 0.075247206 0.48442259
0.052261092 0.075507112 0.48772657
0.062107328 0.075923793 0.49005345
0.035529073 0.086318523 0.48296317
0.042131227 0.085645892 0.48438224
0.052377146 0.085888423 0.48652837
0.061850615 0.085531086 0.48813576
0.035762623 0.093097933 0.48257136
0.042031106 0.095580973 0.48468709
0.052505769 0.095867701 0.48539647
0.061699931 0.09554942 0.48745909
0.042195085 0.10529657 0.48260829
0.052268676 0.10585692 0.48497456
0.061299045 0.10591827 0.48716542
0.035977371 0.11888722 0.4820506
0.041975245 0.11599492 0.4821589
0.052364811 0.11603504 0.48458546
0.061630297 0.11603031 0.48605102
0.035314657 0.12383746 0.48185781
0.041959818 0.12586688 0.48232287
0.052145384 0.12610666 0.48353171
0.060572006 0.12579878 0.48432422
0.034434188 0.13786802 0.4814373
0.042018961 0.13637209 0.48260397
0.051819809 0.1356885 0.48262814
0.060425181 0.13582705 0.48435634
0.035111003 0.14536212 0.4812623
0.041573387 0.14563273 0.48184621
0.052036017 0.14576589 0.48331502
0.061029583 0.14559607 0.48431268
0.035669114 0.15968977 0.4815172
0.042575888 0.15677467 0.48284325
0.052469574 0.15598936 0.48399538
0.061563037 0.15602744 0.48472413
0.03615367 0.16735664 0.48215878
0.042078424 0.16601267 0.48251531
0.052197099 0.16558473 0.48310983
0.061873458 0.16518743 0.48311076
0.036083139 0.17292301 0.48300689
0.042371392 0.17521471 0.48311746
0.052208558 0.17416063 0.48072681
0.062176071 0.17465186 0.48122144
0.067340955 0.17607053 0.48133352
0.035176724 0.18840235 0.48429114
0.041198622 0.18534887 0.48323524
0.051230844 0.18366031 0.47971252
0.061691992 0.18351503 0.47907045
0.067892127 0.18339272 0.48014164
0.025825081 -0.19284256 0.49722639
0.032399561 -0.19401926 0.49621674
0.041926183 -0.19434063 0.49610233
0.051996384 -0.19364674 0.50232321
0.059646022 -0.19476321 0.50244004
